NCOLS 376
NROWS 31
XLLCORNER -113.776367457
YLLCORNER 34.8206832295
CELLSIZE 0.0333760701179487 
NODATA_value -9999 
317.875 330.8125 339.8125 376.5625 347.625 348.6875 334.25 318.625 309.1875 263.1875 259.875 308.125 329.375 356.875 343.5 282.6875 226.5625 241.625 218 222.8125 232.8125 232.9375 236.0625 238.6875 245.4375 250.9375 250.8125 254.1875 255.8125 257.4375 259 259.875 259.625 259.9375 260.25 262.4375 263.8125 264.6875 264.1875 262.625 264.3125 263.6875 258.9375 258.375 256.625 255.0625 250.0625 245.375 241.625 241.0625 239.9375 236.8125 232.25 228.5625 225.375 225.1875 224.625 224 222.125 223.75 224.5 227.0625 232.4375 237.8125 237.375 236 261.6875 290.25 291 296.4375 299.8125 305.0625 307.5625 302.3125 295.3125 298.9375 296.4375 286.25 270.25 268.9375 268.25 268.125 265.9375 263.375 259.75 262.5 266.75 268.9375 266.3125 259.6875 255.25 257 259.3125 262.0625 264.625 260.9375 252.8125 246.125 252.5625 256.75 258.1875 256.5625 258.3125 259.25 251.9375 246 243.875 242.9375 238.0625 232.6875 228.8125 227.1875 227.4375 223.5625 218.375 217.9375 228.4375 220.3125 225.9375 241.125 246.0625 247.5625 248.75 249.0625 246.375 240.25 244.75 250.625 242.5 229.5 219.6875 217.6875 210.875 201.4375 197.625 197.125 192.1875 195.0625 202.6875 205.1875 204.5625 216.0625 217.75 205 191.1875 193.0625 213.25 219.6875 224.5 227.9375 237.4375 243 247.375 250.3125 252.375 253.4375 253.5 250.1875 250.875 248.375 245.5 246.375 244 240.625 239.9375 242.0625 242 239.5 237.1875 238.4375 240.375 241.375 238 234.875 231.6875 230.375 232 233.5 233.25 232.0625 233.5 232 229 223.75 215.3125 213.4375 217 219.25 221.1875 222.4375 224.3125 227.9375 232.0625 234.1875 234.125 235.4375 233.6875 230.1875 228.3125 227.6875 227.3125 228.0625 222.75 222.5625 227.75 220.75 197.25 162.375 177.1875 196.5625 193.1875 183.375 178.5 179.9375 194.125 172.8125 142.1875 157.125 173.5625 166.0625 158.1875 162.0625 193 209.625 218.0625 226.25 233.375 240.6875 253.9375 251.0625 246.5 246.1875 247.6875 247.3125 239.3125 233.8125 213.25 187.6875 172.0625 137.0625 92.375 111.0625 140.8125 144.5625 147.5625 140.625 114.8125 110.375 158.125 178.8125 196.25 199.625 202.3125 205.8125 202.3125 209.875 218.1875 219.875 223.8125 223.5625 229.25 228.0625 230.0625 233.5 234.125 231.3125 234.6875 237.25 238.125 241.5625 241.1875 241.5 243.5 245.1875 248.875 254.0625 259.4375 261.25 262.9375 264.5 266.25 275 273.875 260.5625 257.9375 260.3125 267.8125 258.5625 260 263.0625 262.8125 263.8125 265.5625 264.75 266.25 271.0625 270.5625 276.5 296.4375 298.75 298.625 298.25 295.125 294.0625 298.75 296.375 296 293.0625 290.8125 288.0625 286.3125 286.3125 284.8125 287.0625 290 292.5625 294.5625 296.25 298.4375 300.4375 301.9375 303.75 304.25 305.4375 306 307.9375 307.125 308.0625 308.875 309.8125 311.125 312.5 313.75 314.375 314.75 315.5 316.8125 321.875 318.8125 316.6875 316 315.25 315.3125 315.3125 315.9375 316.875 317.0625 318 318.0625 319.125 319.3125 320.1875 321.375 322.1875 323.3125 324.5625 326.0625 327.1875 328 330.6875 329.5 329.5625 330.5 330.8125 331.9375 332.0625 333.4375 335.9375 335.8125 333.5 336.5 339.125 342.0625 344.5625 345.4375 346.3125
285.0625 291.9375 317.3125 363.625 349.375 338.375 362.875 311.75 310.6875 295.4375 289.25 307.8125 333.125 372.3125 326.4375 278.375 236.625 253.375 227.9375 233 240.75 240.125 234.4375 237.125 244.5625 250.5 250.3125 254.25 258.125 259.75 260.6875 261.6875 260.0625 261.3125 261.4375 262.125 264.0625 264.1875 264 264 266.5 264.6875 256.875 255.4375 255.3125 255.8125 252.375 248.6875 246.1875 244.125 238.3125 242.0625 238.4375 235 232.5 231.8125 230.5625 228.75 227 226.375 228.4375 231.9375 236.1875 242.25 243.9375 261.3125 283.375 290.1875 292.1875 293.875 298.125 302 306.25 306.625 299.625 295.1875 296.5 291.5 286.75 276.3125 269.125 269.0625 268.3125 265.0625 263.3125 268.5 271.5625 269.625 262.3125 256.25 254.4375 260.5625 263.8125 266.5625 266.6875 261.75 253.875 248.625 251 260.625 262.6875 261.4375 260.8125 256.75 254.0625 245.5625 244.375 239.6875 235.5625 233 232.75 232.5625 230.3125 227.25 223.9375 221.0625 233.0625 234 237 239.25 240.9375 244.75 246.25 245.25 244.5625 240.9375 232.25 239.125 234.6875 227.4375 223.625 217.625 215.4375 209.4375 203.8125 198.6875 193.8125 192.5 203.625 207.75 207.5 220.375 214.25 195.9375 188.875 202.8125 219.5625 231.5625 233.5625 239.125 242.0625 245.5 248.4375 250 251.5625 251.5625 251.5625 250.5625 250 248.4375 245.875 243.5625 241.9375 239.25 238.9375 240.3125 239.4375 237.1875 233.8125 234.5 238.5625 239.625 237.375 237.125 235.3125 231.25 228.25 229.3125 231 229.75 230.75 228.875 229.125 226.8125 222.75 215.75 221.4375 218.875 214.0625 216.75 219.5625 223 227.125 230.75 233.5 235.5 235.1875 232.625 233.4375 230.375 231.375 229.5 224.9375 233.4375 232.4375 214.875 200 167.6875 185 205.6875 189.3125 187.9375 195.75 213.3125 195.75 188.375 176.0625 165.8125 163.375 161.625 172.4375 186.125 200.75 216.9375 221.6875 231.875 235.75 249.75 256.8125 250.75 240.25 233.5 238.625 242.125 234.5625 225.5 207.75 173.0625 155.1875 127.25 91.125 124.75 142.875 167.875 155 130.125 115.9375 115.0625 153.875 171.1875 197 199.375 203.4375 208.375 212.8125 212.375 218.25 224 227.5 227.3125 227.75 228.6875 232.625 236.375 236.3125 236.5625 238.625 241.8125 242.125 242.6875 242.625 242.5 244.625 245.9375 248.75 252.75 256.4375 261.125 264.625 263.0625 264.0625 266.6875 275.125 264.75 259.0625 263.875 271.3125 269.375 262.25 267.1875 265.1875 265.625 265.0625 264.4375 265.3125 268.75 269.5 272.4375 287.5625 298.75 300.75 299.0625 297 297.0625 300 298.25 296.3125 293.4375 290.3125 288.8125 289.1875 288.25 286.8125 286.875 289.375 292.125 294.125 296.5 298.5625 300.25 301.75 303 304.5 305.8125 307.625 309.75 308.1875 308.625 309.5625 310.125 311.1875 312.6875 314 314.6875 315.75 317.75 317.875 322.1875 323.3125 318.25 317.3125 316.9375 315.1875 315.3125 315.9375 316.5625 316.9375 317.9375 318.1875 319.125 319.375 320.1875 321.6875 323.25 325.8125 328.1875 330.0625 330.875 332.1875 334 333.75 333.125 333.5 332.4375 332 333.9375 336.1875 338.3125 337.75 336.6875 338.3125 339.5 340.75 344.3125 348.8125 350.375
283 306 324.625 355.375 309.125 300.1875 328.0625 367.75 329.9375 334 307.8125 334.625 355.6875 352.6875 311.8125 274.4375 265.0625 255 229.625 241.1875 248.3125 248.5 237.0625 236.125 243.4375 248.6875 251.1875 251.9375 257.6875 261 262 262.9375 262.1875 261.0625 261.25 263.3125 262.75 263.8125 265.0625 265.375 266.8125 264.125 254.3125 253.5 255.5 256.125 254.3125 251.5625 248.4375 248.3125 247.5625 246.125 243.1875 239.9375 237.75 234.6875 232.5625 231.5 230.875 232.8125 232.5625 234.375 237.5625 242.3125 251.625 272.25 279.625 285 288.9375 294.625 298.375 300.9375 302.5 306.4375 302.4375 297.1875 297.9375 296.3125 291.5625 284.3125 272.875 268.375 268.0625 267.75 268.625 273.6875 271.5 267.4375 262.125 255.6875 258.8125 262.75 266.25 269.0625 267.3125 261.5625 257 259.5625 261.75 264.625 265.3125 261.5625 257.6875 253 244.875 243.0625 238.375 235.5625 236.625 238.75 240 235.125 231.0625 233.125 230.1875 229.125 237.5625 237.6875 232.5 229.5625 236.5 240.375 241.375 239.8125 242.875 238.75 227.375 228.8125 233.25 228.1875 227.375 223.25 217.6875 212.875 205.0625 201.25 195.3125 191.3125 201.5625 209.8125 212.4375 220.75 217.9375 201.5 191.625 209.625 228.8125 235.1875 238.0625 241.5 243.625 245.3125 248.25 249.25 247.8125 242.375 243.0625 246 245.5 242.75 240.0625 238.25 238.875 235.5 236.5625 236.625 237.3125 236.1875 233 236.125 237.75 237.375 236.5 234.6875 234.625 233.5 230.875 228.25 226.5 226.0625 226.75 223.5 223.125 224.4375 227.625 227.5 229.875 229.5 223.375 225.0625 220.8125 217.125 221.5 227.1875 231.3125 236.9375 238.0625 236.5625 233.3125 233.375 234.1875 229.0625 224.8125 237.1875 233.625 227.375 209.8125 168.875 188.0625 216.375 198.8125 196.1875 223.375 199.125 184.3125 175 152.4375 153.25 168.25 184.625 188.375 193.4375 205.25 222.1875 233.3125 237.625 245.8125 249.875 235.25 243.0625 243.125 237.3125 234.625 235.1875 233.3125 224.5625 202.9375 169.6875 147.875 99.8125 90.5625 146 154.875 174 157.375 130.9375 105.375 115.0625 146.6875 156.375 176.1875 197.25 205.8125 212.0625 210.1875 218.5625 218.25 222.0625 226.375 227.3125 230.5 231.6875 231.4375 237.3125 236.8125 238.8125 234.5625 240.1875 243 243 241.75 240.5625 244.625 247.6875 251.375 253.0625 255.6875 258.4375 263.1875 263.5625 263.0625 273.4375 275.4375 272.1875 255.6875 258.5625 274 280.1875 281.8125 278.125 269.375 268.3125 269.75 267.0625 264.75 267.625 271.0625 269.9375 273.75 294.9375 300.9375 302.125 300 302 299.5625 296.5625 296.4375 294 290.5 289.5625 290.125 289.5 289.25 289.375 289.5625 290.75 292.9375 295.375 297.75 299.625 302.3125 303.375 305.0625 306.5625 308.1875 310.0625 310.8125 310.875 313.625 313.5625 315.0625 315.1875 315.125 316.25 318.1875 318.6875 320.8125 320.25 324.5625 322.0625 318.125 317.1875 315.9375 315.125 315.75 316.5625 317.1875 318.1875 318.4375 319 319.5625 320.6875 322.25 325.5 328.25 329.375 331.4375 332.3125 333.5625 335.0625 337.4375 335.6875 336 334.8125 335.1875 336.6875 339.0625 340.4375 339.25 340.5625 340.3125 341.9375 344.375 350.0625 351.6875 349.875
304.125 300.125 289.75 301.3125 328.75 291 301.3125 333.9375 344.1875 347.25 365.9375 358.5625 365.125 333.875 301.5625 284.5 286.5625 262.6875 230.5 241.5 249.75 254.8125 242.875 237.4375 243.875 249 252.75 254.375 250.9375 255.9375 261.625 263.125 263.9375 262.4375 261.1875 262.125 263.625 264.5 264.125 265.6875 264.5 263.9375 256.8125 253.6875 257.3125 257.25 255 253.375 250.625 248.5625 246.25 245.125 243.5625 240.1875 237.5625 235.875 233.25 231.9375 234.0625 235.3125 237 238.5625 239.5625 246.5625 252.8125 273.1875 277.375 282.0625 282.625 284.6875 293.0625 300 302.25 305.5 305 299.9375 294.25 294.6875 293.75 289.25 283.125 271.625 267.5 268.125 271.25 271.6875 269.8125 264.25 258.3125 258.625 264.1875 266.125 268.0625 270 265.875 263.125 263.4375 265.25 266.5 267.0625 264.4375 258.125 250.75 247.6875 238.5625 235.9375 237.1875 240.875 245.8125 243.625 236.375 230.4375 230.3125 234.125 232.1875 233.375 239.6875 238.875 233.3125 229.4375 231.75 231.5 234.5625 234.25 239.8125 231.125 231.8125 234.375 235.0625 231.8125 230 223.8125 218.4375 213.4375 207.6875 201.125 196.125 192.6875 197.875 212 216.3125 226.375 216.3125 204.875 207.25 207.1875 225.8125 233.5625 238.8125 242.25 244.375 246 246.8125 245.8125 243.3125 238.75 234.1875 235.5 236.6875 233.5625 231.5625 232.75 231.8125 230.4375 230.3125 232.375 233.9375 233.125 231.6875 231.8125 233.875 234.625 234.5625 234.625 231.5625 231.0625 231.25 229.1875 226.3125 221.25 219.5 220.75 225.3125 226.8125 229.25 230.75 232.625 232.875 231.5625 232.25 230.5625 223 224.5625 229.0625 230.5625 239.5625 241.25 238.625 236.6875 238.1875 233.4375 229.625 235.375 238.4375 233.4375 230.125 217.875 178.1875 189.875 219.25 217.375 214.25 229.625 203.3125 198.1875 182.25 171 174.5 181.75 201.125 208.5625 204.125 210.0625 236.5 245.75 247.5 238.125 233.375 226.3125 234.625 242.25 235.9375 231.375 225.125 221.875 221.6875 202.9375 177.5 149.1875 119.375 124.375 152.6875 170.9375 175.3125 140.5625 120.4375 105.375 122.6875 142 158.875 153.9375 188.1875 204.875 207.375 212.375 218.8125 222.75 225 227.375 229.125 230.8125 232.5625 234.125 233.0625 231.9375 234.9375 233.0625 237.25 239.875 242.0625 239.6875 241.0625 242.4375 242.875 247.3125 251.6875 253.125 253.0625 260.1875 265.4375 265.0625 275.1875 271.875 264.625 257.9375 264.6875 265.125 266.75 285.75 288.5625 276.375 269.75 274.0625 271.75 266.8125 270.0625 278.75 279.875 278.3125 296.1875 301.8125 303.625 301.25 302.9375 300.5 298.125 295.875 293.75 290.8125 289.25 289.5625 289.375 289.875 291.3125 292.5625 293.375 293.75 295.875 298.25 300.375 300.0625 301.1875 303.4375 305.3125 308.25 310.625 312.375 313.125 312.6875 315.0625 316.0625 317.6875 319.25 320.1875 321.9375 323.125 323.0625 321.4375 325.25 323.4375 320.1875 317.4375 317.125 315.625 315 316.625 317.6875 318.9375 319.375 319.1875 320 321 322.25 324.125 326.4375 328.4375 328.25 330.0625 331.125 334 338 339.375 339.375 336.875 337.625 339.1875 339.9375 344.75 343.3125 343.75 346.125 345.3125 348.5625 350.25 346.625 345.125
281.9375 281.375 285.25 295.8125 336.9375 315.875 309.125 302.625 298.8125 306.625 307.125 323.75 324.4375 300.25 324.5 304.8125 283.25 256.0625 232.8125 243.1875 252.8125 258.5625 252.3125 235.5 242.6875 248.375 251.25 250.5625 244.375 241.125 257 261.75 263.4375 263.75 263.375 264.6875 264.5625 264.5 264.0625 265.5 265.125 264.125 259.5625 256.8125 258.625 257.5 256.875 255.5625 253.25 251.5625 248.4375 245.1875 242.6875 239.8125 238.25 238.0625 235.8125 234.375 235.375 237.1875 238.125 240.125 247 254.375 267.5 272.125 274.9375 279.0625 279.25 279.9375 280.5 292.5625 297.3125 304.1875 304.9375 302.4375 299.1875 297.125 295.625 291.875 283.25 280.25 272.0625 267.9375 274.125 274.4375 268 265.5625 262.75 265.1875 267.5625 269.1875 271.25 268.5625 264.1875 265.3125 267.75 269.125 268.9375 267.375 262.625 256.9375 254 249.6875 246.875 249.25 251.3125 248.3125 239.875 235.125 230.5625 230.8125 233.6875 236.5625 233.75 235.4375 242.1875 239.0625 231.5625 232.9375 237 234.9375 232.125 239.375 240.8125 240.375 238.625 236.3125 233.5 230.4375 226.125 220.8125 216.8125 212.1875 207.0625 203.125 201.125 196.5625 198.875 206.3125 223.5 225.75 220.75 214.8125 212.375 206.4375 217.1875 227.75 232.8125 238.9375 242.4375 244.625 243.5625 241.3125 237.125 230.4375 226.875 227.8125 228.25 222.75 221.6875 217.625 218.9375 222.1875 227.0625 227.75 230.375 230.375 227.5 226.9375 231.125 229.8125 230.25 232.625 230.8125 228.5625 227.625 225.9375 224.375 220.125 219.8125 221.8125 223.0625 225.6875 226.5625 229.6875 231.75 235 235.6875 234.1875 234 235.1875 234.75 238 239.5 242.8125 244.0625 242 241 236.8125 236.625 236 238.1875 241.4375 241.3125 238.3125 222.9375 183.9375 182.5 210.25 241.9375 236.6875 219 219.875 214.25 194.9375 178.1875 181.1875 203.25 213.0625 223.5 224.75 237.8125 251.75 257.5 249.0625 232.9375 227.4375 226.75 233.4375 239.6875 233.875 228.875 222.625 216.0625 213.0625 198.3125 173.0625 161.25 155.0625 156.125 166.875 181.375 167.1875 141.75 137.75 117.25 137.25 165.3125 169.25 186.75 197.75 203.9375 198 205.9375 222.8125 225 225.375 228.875 229.5 228.75 231.75 231.6875 230.0625 229.75 232.5 232.625 232.25 237.25 238.4375 235.125 238.625 237.8125 240.25 244.1875 246.875 248.6875 248.75 251 259.5 282.9375 277.75 266.8125 266.875 273.625 289.25 288.8125 275.8125 279.4375 289.4375 290.9375 287 277.9375 276.4375 272.625 271.3125 286.6875 292.5625 286.3125 296.1875 301.5625 304.5 303.5 303.375 299.1875 295.375 292.75 290.8125 289 289.25 291.1875 290.6875 291.125 293.0625 295 295.9375 297.25 295.9375 296.0625 297.375 298.5 300.5625 302.3125 304.625 306.5 308.1875 310.25 311.6875 311.875 313.625 315.625 316.1875 315.5 317.0625 319.625 322.6875 325.75 325.25 326.9375 326 321.875 318.4375 320.25 316.4375 317.9375 318.8125 317.8125 318.625 319.0625 319.0625 319.75 320.5 321.5625 323.6875 325.1875 326.3125 328.3125 330.75 332.1875 334.5 335.5625 336.8125 339.3125 341.75 340.875 342.875 343.9375 346.0625 346.0625 347.125 348 348 347.9375 347.375 344.4375 342.25
276.75 282.25 289.5 316.1875 306 296 292.625 294.75 297.8125 301.875 314.9375 317.9375 295.5625 279.625 300.625 281.0625 266.9375 251.25 240.875 237.375 252.25 261.3125 256.25 232 238.5625 243.25 246 248 247.875 243 246 247.1875 257.0625 261.6875 256.625 258.125 265.625 266.625 266.4375 265 265.0625 263.5625 262.25 260.125 258.4375 257 256.6875 255.25 253.0625 252.375 249.9375 247.4375 244.1875 239.3125 237.8125 238.8125 236.4375 235.1875 235.625 238.9375 240.5 246.5 253.375 259.0625 266.8125 269.25 272.9375 275.1875 276.4375 276.375 278.5 282 284.625 302.4375 301.9375 300.75 292.625 292.0625 293.375 291.875 288.125 284.6875 277.5625 274.8125 276.4375 278.875 272.75 267.5625 264.8125 267 268.875 273.375 267.9375 264.6875 266.6875 269.25 271.5625 271.0625 269.8125 265.875 261.125 258.1875 257.125 256.75 257.25 253.8125 248.1875 246.125 241.1875 232.0625 232.625 233.375 237.9375 236.6875 234.6875 238.125 243.8125 239.1875 236.375 235.625 239.1875 233.4375 238.9375 245.9375 243.5 241.125 233.9375 231.625 229.25 226.25 224.25 219.5625 216.5 212.125 207.5625 205.375 201.8125 199.5625 204.6875 216.125 228 225.625 216.5 217.6875 213.0625 213.25 218.25 223 229.3125 237.3125 240.9375 241.875 234.8125 227.125 220.875 216.6875 216.125 213.5 213.375 212.25 208.875 206.625 204.125 209 218.1875 215.1875 224.125 225.5625 222.25 226.5625 228.8125 228.3125 228.5625 230.125 228.3125 227.8125 225.125 222.125 219.1875 218.125 218.5625 220.875 222.125 224.125 228 230.125 233.5625 235.25 236.6875 237.1875 235.8125 238.625 238.3125 240.5625 241.125 243.875 244.0625 240.1875 239.6875 239 240.3125 241.9375 242.9375 242.5625 246.125 244.375 232.25 198.75 192.875 224.3125 245.1875 248.8125 238.25 236.25 212.9375 208.375 195.6875 201.125 218.1875 233.3125 241.6875 249.6875 256.875 262.4375 257.6875 235.4375 227.8125 224.0625 218.4375 231.6875 237.9375 235.6875 231 226.0625 223.3125 216.625 201.8125 184.75 176.4375 148.8125 172.5625 183.25 192.9375 159.25 161.25 153.1875 144.4375 134.8125 157.5 168.5625 195.25 204.5625 210.0625 193.1875 203.125 227.4375 230.6875 231 230.6875 229.9375 228.5 229.4375 227.6875 228.375 227.875 228.5625 231.375 230.375 233.6875 235.0625 234.75 236.375 236.25 238.75 242.125 245.5 246.5 251.9375 271.1875 275.125 277.75 290.6875 283.8125 289.75 292.5 292.8125 291.9375 288.3125 287.9375 288.0625 292.125 291.875 285.625 278.375 279.125 275.25 284.25 287.4375 295.875 302.75 304.5 305.5 305.9375 302.1875 299 296.25 293.25 292.0625 291.25 291.5625 293.5 293.5 295.5625 296.6875 295.5 296.3125 297.1875 298.9375 299.375 301.75 303 303.5 305.0625 306.6875 309.125 310.125 310.0625 311.75 313.0625 315.75 319.75 317.875 316.25 317.625 318.25 321.75 324.5625 326.9375 329.25 328.25 323.625 323.1875 322.125 319 321 322.5 320.8125 322.125 319.4375 319.25 319.75 320.75 320.625 321.5 322.6875 324.5625 327 329.1875 331.0625 332.375 333.3125 335.6875 337.75 341.125 344 342.625 340.4375 343.1875 340.625 341.625 343 342.1875 343.8125 345 342.0625 341.5
275 283.5625 296.9375 300.0625 284.8125 287.5625 290.875 290.6875 289 299.125 321.625 301.5 291 276.0625 273.8125 271.9375 270.6875 263.375 252.375 240.8125 253.3125 264.25 250.5 232.625 237.25 241.3125 245.1875 246.9375 248.75 246.875 239.9375 239.8125 251.3125 257.6875 254.25 262.75 264.6875 263.9375 265.125 263.25 262.375 262.4375 261.6875 259.625 259.25 257.25 256.25 254.75 252.9375 251.5625 250.5 248.1875 244.75 239.75 236.9375 235.5625 234.875 236.6875 236.9375 237.9375 236.9375 249.5625 255.4375 258.1875 263.0625 264.3125 268.625 270.875 273.625 275.75 278.0625 281 289.8125 304.25 300.4375 300.75 294.0625 288.5 290.0625 289.6875 285.25 280.625 277.125 279.625 280.5625 277.9375 274.8125 271.625 270.75 272.1875 274.875 273.9375 265 267.4375 269.25 273.4375 272.5 269.1875 265.375 264.125 262 262.125 261.3125 259.875 257.75 256.3125 253.9375 250.625 245.6875 237.75 235.0625 240.3125 243.625 241.5 240.3125 241.4375 245.75 240.9375 237.25 238.4375 237.5625 239.375 247.4375 244.125 237.9375 234.9375 230.5 225.9375 223 220.8125 219.1875 216.875 214.3125 212.1875 209.5 206.0625 201.8125 202.9375 212.5 223.625 228.5625 226.75 224.25 219.75 217.125 223 225.75 226.75 228.6875 230.125 234.25 234.375 223.75 216.9375 217.1875 218.75 213.5 215.125 219.125 213.375 211.4375 212.5625 206.4375 211.5 203.25 204.4375 203.125 207.6875 206.75 221.6875 223 223.4375 226.375 225.125 226.6875 224 223.125 221.125 221.1875 223.25 222.1875 222.625 224.5625 227.0625 227.3125 230.9375 231.25 232.4375 234.5 235.1875 239.0625 241.0625 241.75 243.6875 245.6875 245.875 245.9375 241.125 242.3125 243.75 244.8125 244.5 244.125 247.0625 249.1875 248.0625 245 221.625 208.3125 233.25 247.5 257.375 250.5 242.9375 211.625 217.0625 213.125 223.0625 230.875 235 248.625 256.5625 262.1875 266.75 262.1875 237.625 228.9375 228.6875 231.1875 237.5 241.4375 238.5625 234.5 230.625 224.75 215.75 195.6875 177.5 169.3125 148.0625 171.875 180.25 195.4375 174 177.75 173.375 156.375 140.6875 151.75 193.4375 208.875 205.8125 206.5 208.4375 216.5625 229.3125 233.5625 234.0625 228.375 225.625 226.5 226.5 226.25 227.125 225.625 228.9375 231.875 230.9375 232.5 233.125 233.4375 234.9375 236.8125 238.625 240.8125 248.9375 257.25 272.9375 266.75 269.625 286.6875 294.9375 293.0625 288.25 290.875 294.25 292.4375 291.8125 291.1875 291.3125 294.125 292.625 289.875 285.5 284.1875 285.4375 286.9375 287 285.6875 295.8125 299.0625 307.0625 304.75 301.875 299.4375 297.0625 296.125 296.1875 295.5 293.375 296.3125 297.9375 297.25 297.3125 298.875 299.5 300.25 300.125 299.6875 302.0625 303.625 306.0625 307.625 309.625 311.4375 313.25 313.4375 314.625 315.5625 319.1875 321.1875 319.6875 319.1875 320.3125 320.5625 321.5 322.3125 324.6875 329.625 328.5 328.375 325.8125 322.125 322.875 323.625 324.75 324.5625 323.25 320.75 322.875 323.5 322 320.1875 320.8125 322.125 324.875 327.75 329.875 332.9375 335.3125 337.3125 336.125 339.9375 343.375 342.4375 337.625 337.4375 340 337.25 338.0625 340 339.4375 344.75 341.875 340.3125 341.375
274.0625 283.8125 282.8125 278.6875 281.0625 285.875 288.875 289.5 290.1875 310.75 313.6875 300.1875 274.8125 271 269.25 266.0625 263.4375 262.375 263.1875 261.875 267.0625 265.4375 243.0625 235.25 239.875 243.5625 247.4375 245.625 247.25 242.8125 242.5 242.1875 248.9375 251.375 250.1875 258.4375 262.625 264.375 264.5625 262 260.5 261.125 259.875 258.25 257.0625 257 254.75 252.8125 251.5 250.125 249.375 247.9375 246.1875 240.1875 235.875 236.3125 236.6875 236.1875 237 239.8125 243.8125 250.8125 252.6875 253.6875 255.5625 259.4375 263.8125 266.9375 272.125 275.125 277.3125 279.625 286.5 302.125 302.75 301.25 297.5 285.25 286.3125 286.875 287.0625 286 285.3125 284.3125 282.875 279.9375 279.6875 277.1875 276.4375 276.125 277.625 273.5 271.5 273.0625 274.875 272.875 270.5625 265.875 263.4375 265.75 263.5 264.6875 262.0625 261.1875 257 257.625 255.3125 247.125 249.6875 246.875 246.4375 247.375 248.4375 248.625 248.375 248.625 249 243.1875 238.1875 242.25 240.625 246.75 244.3125 242 238.125 235.0625 231.3125 227.3125 224.3125 222.5625 220 218.3125 215.625 212.1875 208.5 206.125 202.9375 202.6875 209.75 222.5 230.9375 225.6875 220.375 223 223.5625 229.6875 231 227.875 232.0625 233.9375 229.8125 227.125 211.125 212.0625 221.6875 221.6875 223.4375 223.875 222.75 222.125 220.5 219.75 217.0625 215.9375 213.0625 209.6875 205.875 201.6875 200.625 209.125 215.5 218.875 220.3125 220.75 222 221 217.125 215.75 216.75 221.5625 224.3125 226.9375 228.6875 229.5625 228.3125 230.25 232.6875 234.125 234.375 238.6875 236.8125 237.6875 238.75 239.0625 241.4375 243.3125 249.9375 248.75 248.25 246.5 243.4375 240.9375 247.75 252 253.375 252.8125 254 237.1875 226.3125 240.375 255.8125 263.0625 256.75 234 213.875 228.5 227.75 235.25 241.8125 245.3125 250.9375 263.625 270.875 272.6875 268.5625 258.5625 233.8125 232.125 235.5625 242.625 243.3125 241.0625 237.4375 232.125 225.625 217.1875 201.8125 193.3125 186 182.9375 184.4375 197.1875 208.6875 190.3125 183.625 182.5625 171.375 153.6875 157.125 204.125 216.125 216.9375 213.375 208.375 212.5 228.9375 235.3125 235.25 229.8125 228.375 225.9375 224.0625 225.75 224.75 225.5625 228 234.25 234.875 233.0625 234 235.375 233.875 238.625 242.875 248.8125 254.8125 261.25 264.4375 271.3125 287.9375 291.1875 292.1875 293.3125 296 295.4375 295.5625 294.25 294.5 293 294.75 296.1875 284.4375 297 294 285.875 289.1875 291.875 289.4375 288.375 288.875 289.6875 307.0625 305.6875 303.375 302.1875 301.5625 300.3125 299.5625 298.6875 297.3125 298.1875 298.3125 298.1875 298.5625 299.6875 300.625 302.125 303.25 303.125 305.375 306.3125 307.8125 309.875 311.25 311.1875 313.75 315.75 317.8125 317.75 318.75 322.125 321.5 321.4375 323.25 323.125 324.375 324.5 325.8125 327.5625 331.0625 330.125 327.0625 324.9375 326.0625 327.3125 327.5625 327.375 325.5625 325.6875 327.875 327.25 323.9375 321.8125 321.375 322.375 324.375 325.75 328.25 331.875 336.75 340.625 337.875 342.125 343.125 337.5 335.75 336.875 338 334.125 334.75 336.9375 338.3125 342.625 340.1875 339.5625 338.625
275.9375 276.6875 268.8125 270.3125 274.0625 281.8125 287.375 291.5 302.1875 310.6875 301.1875 282.9375 272.1875 272.3125 270.1875 267.5 263.6875 265.75 268.4375 269.9375 270.3125 262.75 233.6875 236.25 243.5625 247.8125 250.1875 247.4375 245.75 239.375 234.5625 239.9375 250.3125 251.1875 252.8125 254.625 262.25 263.875 263.75 260.6875 259.5625 259.125 256.3125 255.125 255.1875 255.375 252.5625 252.125 250.75 249.375 247.9375 246.5625 244.875 241.5625 237.3125 235.9375 236.3125 234.75 235.5625 238.6875 244.875 247.5625 249 246.875 244.1875 252.625 260.0625 265.1875 270.1875 272.0625 274 277.6875 292.0625 299.375 302.125 302 300.25 295.25 285.25 285.125 286.1875 288.25 287.25 286.8125 285.5625 283.875 275.6875 275.75 277.6875 279.8125 277.4375 270.0625 273.125 277.5625 274.3125 269.375 267.5625 265.8125 267.75 267.875 263.125 258.1875 258.4375 251.125 252.5 255.9375 254.4375 253.0625 250.5625 250.0625 248.8125 246.3125 247.8125 251.25 251.3125 251.625 249.6875 247.9375 247.3125 247 246.125 243.0625 238.375 235.9375 233.75 230 226.875 225.9375 224.625 220.0625 216.0625 215.0625 213.875 210.5 206.625 205.125 204.5625 202.875 204.1875 217.1875 230.0625 227.375 227.4375 227.5625 229.9375 232.75 233.9375 234 235.8125 231.75 226.625 223.375 213.3125 223 228.625 226.625 222.875 215.9375 213.0625 211.125 211.75 214.5 215.6875 214.375 214.75 207.9375 201.25 192.875 198.3125 200 200.25 200.8125 205.625 208.1875 212.6875 211.75 212.625 216.5 219.3125 220.5625 224 224.3125 228 229.8125 231.375 232.9375 234.4375 233.875 234.9375 235.8125 233.125 229.5625 218.875 222.625 220.75 219.8125 239.875 250.875 247.75 244.4375 240.375 242.875 245 253 256.625 256.875 259.9375 247.3125 241.25 254.1875 265 262.5 256.1875 243.0625 234.5 234.25 241.4375 244.5 250 254.6875 260.1875 267.125 275.0625 272.875 269.1875 267.375 252.6875 243.25 243.0625 246.6875 246.3125 243.5 238.9375 234.125 228.75 220.8125 208.5625 203.5 203.1875 204.5 203.4375 210.3125 217.5625 216.3125 201.8125 201.25 191.125 172.3125 169.25 192.25 216.5 223.8125 220.5 217.25 222.6875 231.8125 237.1875 235.8125 231.3125 232.3125 230.4375 227 225.25 224.875 227.5625 227.625 234.375 239.4375 236.6875 235.9375 236.1875 236.5 239.25 246.5625 250.125 251.375 255.625 262.875 268.6875 282.8125 288.8125 290.5625 291.3125 294.25 298.625 298.0625 296.375 297.6875 295.1875 296.3125 297.5625 297.0625 300.3125 295.25 286.875 290.125 294.125 290.25 293.125 290.5625 294.6875 307.375 308.25 305.5 304.8125 304.4375 304.4375 303 303.25 300.25 299.5625 301.5625 302.5625 302.6875 303.625 304 304.8125 305.125 305.75 307.1875 309.375 309.1875 312.4375 314.4375 313.375 314.1875 315.3125 318.6875 320 318.25 321.3125 323.75 322.75 324.8125 326.375 326.625 327.625 328.1875 329.3125 328.8125 332.5625 328.9375 328.125 329.8125 330.1875 330.0625 329.1875 327.8125 330.0625 332.875 330.5 327.1875 325.75 325.6875 325.125 325.375 327.5 330 332.625 333.1875 335.1875 343 343 339.0625 336.3125 333.6875 335 337.1875 334.625 333.125 334.875 338.9375 340.75 338.6875 338.125 337.8125
307.375 267.625 254.25 260.75 267.5 282.0625 288.4375 295.1875 296.9375 295.3125 289.25 275.3125 273.75 274.5625 271.1875 267.5625 268.4375 268.3125 271 272.375 272.4375 263.125 234.5 241 247.6875 250.5 254.375 250.625 243.8125 239.5 237 244.0625 250.8125 251.5625 254.4375 256.4375 260.4375 263.75 261.75 256.6875 258.5625 257.9375 255.5 255.1875 254.875 255.5 251.8125 250.1875 247.4375 247.3125 246.1875 242.8125 240.125 232.25 228.9375 228.125 225.8125 230.1875 232.6875 237.0625 238.1875 240.8125 239.8125 237.1875 236.5 240.9375 256.5 262.875 266.4375 269.5 271.375 279.5 291.25 296.1875 300.25 300.6875 298.625 291.625 288.1875 288.6875 288.875 288.1875 287.5625 287.4375 286.9375 285.1875 280 282.25 281.9375 281.25 276.9375 275.8125 279.25 276.6875 271.375 267.6875 266.8125 269.125 270.5 266.75 259.3125 254.8125 245.3125 240.25 245.75 248.125 240.0625 244.9375 243.1875 245.375 244.75 248.25 250.6875 251.9375 252.8125 251.8125 252.625 250.75 252 248.6875 243.3125 238.25 234.375 230.8125 228.875 228.1875 227.6875 231.3125 231.5 223.0625 216.9375 212.8125 208.5 207.1875 206.375 208.6875 209.0625 207.4375 205.25 211.1875 228.375 229.375 233.8125 234.75 230.3125 230.1875 234.1875 237.6875 235.625 231.625 232.25 229.3125 229 232.1875 226.9375 224.375 218.0625 211.9375 210.25 208.6875 208.0625 203.0625 202.625 206.375 207.75 208.0625 203.1875 195.0625 205.125 209.5625 209.4375 206.1875 210.625 203.8125 200.9375 204.5625 210.875 215.5 215.5625 218.125 219.3125 222.375 225.875 228.6875 230.75 232 234.25 233.0625 232.9375 231.8125 226.1875 208.75 198 192.25 192.875 198.5625 228.1875 245.125 252.875 249.0625 247.25 235.125 234.1875 247.9375 251.25 254.6875 258.5 262 260.3125 265.8125 265.875 258.9375 256.4375 254.5625 249.625 241.25 243.375 248.5625 251.8125 262.125 265 270.625 275.5 270.625 267.25 266.625 258.8125 249.8125 250.75 250.5 246.5 243.5625 240.0625 236.5 232.5625 227.4375 219.4375 213.9375 214.375 203.8125 203.875 210.125 222.625 218.875 204.4375 211.1875 200.5625 184.625 182.6875 182.5625 216.125 225.125 228 224.5625 229.125 234.4375 239.5625 237.8125 235.3125 234.125 230.4375 227.9375 224.875 225.25 226.875 225.6875 232.625 244.5625 240.8125 240.0625 236.1875 236.3125 238.25 238.625 241.625 252.625 266.9375 268.0625 273.6875 279.75 287.75 289.375 290.25 292.0625 293.125 300.375 298.875 298.875 296.5 297.8125 299.3125 300.125 302 296.3125 285.1875 290.1875 297.625 295.9375 300.1875 293.5625 293.375 305.3125 309.5625 309.9375 308.25 307.875 308.5 307.1875 303.875 302.875 302.6875 304.4375 305.5 305.625 306.4375 306.5 307.4375 308.125 308.625 310 311.8125 311.875 314.4375 316.9375 315.8125 316.4375 317.9375 318.8125 322.3125 322.625 323.0625 325.8125 326.5 327.3125 329.125 330.25 331.6875 332.9375 331.5625 332.6875 333.4375 333.375 332.875 333.3125 333.9375 333.1875 331.6875 331.5625 330.6875 333.5 333.3125 329.6875 329.375 329.3125 328.5625 329.3125 328.9375 331.0625 333.875 340 343.125 339.25 337.0625 336.5625 335.0625 331.625 334.625 335.1875 332.375 333 336.3125 337.6875 339.4375 337.0625 336.625 336.0625
321.4375 280.5 256.125 266.3125 285.125 294 298.0625 296.3125 292 288.4375 280.6875 275.375 278 274.6875 269.5 269.9375 266.875 267.6875 271.875 274.3125 273.8125 273.1875 260.8125 252.75 246.0625 250.9375 255.9375 256.25 250.1875 242.25 240.5625 250.4375 253 253.125 255.6875 256.9375 261.625 261 260.125 256.875 256.0625 255.875 252.25 253 252.9375 254.4375 252.1875 248.875 246.5625 245.1875 243.4375 239.0625 231.3125 225.0625 228.75 227.4375 219.6875 221.375 221.75 218.8125 218.1875 223.9375 228.625 228.5 231.4375 236.875 249 256.75 261.625 266.625 269.4375 277.5625 286.25 290.1875 293.9375 299 296 293 291.6875 292.625 291.875 288.875 284.25 284.25 285.375 285.5625 284.8125 283.75 282.875 281.9375 280.0625 281.375 279.875 273.6875 271.1875 271.75 273.125 271.625 268.4375 265.625 261.5625 256.25 248.6875 236.125 238.5 239.5625 235.125 236.75 239.25 245.125 244.9375 246 249.625 252.125 254.1875 252.25 253.5 253.5625 252.125 241.8125 240.125 237.9375 234.5 232.4375 232.375 229.625 232.4375 236.9375 232.5 226.0625 220.375 215.6875 211.4375 209.4375 209.125 210.75 213.125 211.875 210.5 219.5625 230.375 229.625 232.1875 237.0625 233.625 236.875 232.625 238.375 236.375 236.0625 235.1875 231.5625 231.875 229.75 229.8125 230.4375 228.5625 226.125 223.3125 222.5625 221.75 220.1875 207.5625 194.8125 198.25 202.0625 203 204.5 209.5625 213.625 216.125 217.0625 216.9375 213.1875 202.3125 198.75 205.25 209.25 209.5 210.1875 213.625 219.0625 223.75 227.9375 230.3125 232.25 232.625 231.6875 231.375 224.0625 204.875 191.875 188.0625 187.1875 195.3125 209.375 231.125 244.0625 250.6875 254.375 249.5625 217.0625 222.5 247.875 251.5 254.75 259.25 259.0625 259.4375 264.0625 268.25 266.8125 265.1875 261.6875 257.5 245.25 248.4375 250.625 249.5625 260.75 269.0625 275.875 275.1875 271.875 270 267.625 261.5 249.75 246.375 244.5 245.6875 244.25 242 238.625 234.6875 229.875 225.625 223.6875 215.4375 209.9375 208.5 202.3125 217 224.875 210.0625 212 212.375 200.25 199.6875 196.875 203.1875 220 225.9375 233.6875 234.75 236.1875 240.3125 239.125 236.5625 235.5 231.125 233.0625 226.5 224.6875 225.1875 225.25 231.1875 243.6875 247.25 241.8125 234.625 233.5 242.0625 252 261.1875 260.375 270.1875 274.4375 277.3125 283.5 285.1875 291.875 292.375 292.5625 294 297.625 304.6875 303.5625 301 297.3125 300.0625 302.5 303.3125 298.625 287.3125 286.75 296.125 300.75 300.375 292.9375 288.125 300.5 307.4375 307.875 310 311.125 313 312.375 308.25 306.0625 306 307.5625 307.875 308.1875 309.375 309.9375 310.25 310.625 310.8125 312.5 313.875 315.125 315.875 318.8125 319.875 320.625 320.9375 320.875 322.9375 326.3125 327.4375 329 330 330.1875 331.0625 331.875 331.5625 331.8125 331.3125 331.375 330.125 333.5 334.5 334.6875 335.1875 336.9375 337.25 335.625 335.125 336.4375 334.375 332.75 330.6875 332.375 331.9375 331.0625 332.6875 333 332.0625 338.875 341.8125 336.8125 333.25 333.25 331.75 331.4375 332.8125 333.5 331.5625 333.4375 334.375 335.9375 337 335.625 335.0625 333.625
324.375 279.5625 279.4375 290 297.6875 300.75 301.75 298.75 294.6875 277.75 270.375 273.0625 272.875 270.8125 267.625 265.875 265.625 263.125 271.375 275.3125 275.3125 275.3125 274.375 255.25 244.4375 252.625 257.3125 259.125 255.125 244.3125 232.375 247.1875 245.9375 249.3125 254.25 256.75 260.1875 257.5 258.1875 256.9375 254.3125 254.25 251.3125 248.8125 250.875 252.25 251.125 249.625 239.5 235.125 239.4375 236 225.5625 222.8125 225.125 223.6875 217 216.25 209.5625 210.6875 208.9375 210.75 218.125 214.625 223.0625 237.375 242.875 249.0625 258.4375 262.125 265.4375 269.4375 278.5 279.9375 288.5625 294.3125 296.5625 295.625 294.25 294 293.1875 291.25 287.75 281.9375 282.4375 284 284.1875 284 283.6875 283.625 282.8125 282 280.8125 278.1875 274.625 275.1875 273.875 269.5625 266.625 261.5625 259.625 254.0625 251.125 243 235.75 237.125 239.125 234.5 239.8125 245.25 251.5625 253.6875 246.8125 250.875 254 256.1875 254.4375 255.875 251.625 246.375 243.3125 240.125 239.0625 237.25 234.25 232.25 233.75 237.4375 235.0625 227.75 224.8125 219.6875 215.6875 212.9375 211.6875 212.75 215.5 216.3125 223.5 231.0625 229.375 227.8125 233.25 235.1875 236.0625 239.625 239.0625 233.1875 235.6875 233.4375 229.3125 225.75 224.5625 222.75 223.625 225 225.4375 223.5625 223 223.6875 221.9375 220.75 218.8125 207.6875 190.75 189.0625 188.25 193.875 200.4375 209.25 211.8125 217.875 218.4375 214.375 213.25 206.1875 208.3125 211.6875 209.5625 199.1875 202.1875 209.75 219.375 222.875 227 229.375 228.5625 230.125 223.375 197.5 185.6875 185.5625 182.625 185.0625 197.875 210.75 230.125 240.5625 246.75 255.4375 252.75 221.625 233.1875 245.0625 251.875 253.875 254.625 254.875 258.9375 261.375 263.5 267.9375 270.75 268.625 261.8125 249.75 248.75 253.5 249.3125 262.75 273.5625 276.125 270.875 267.25 266.6875 267.1875 265.125 260.9375 253.5 240.8125 246.0625 247.0625 243.375 240.125 236.6875 234.9375 232.25 228.1875 217 217.8125 217.9375 212.1875 210.125 226.75 225.1875 224.125 225.75 218.75 222.875 215.375 208.5625 221.8125 227.6875 233.8125 238.6875 235.625 238.0625 237.0625 240.875 232.6875 235.4375 238.9375 238.25 230.25 226.375 224.9375 228.6875 240 254.0625 241.875 233.875 229.875 254.75 268.3125 272.0625 256.4375 269.75 277.75 281.8125 286.1875 286.5 290.5 295.3125 296.375 298.1875 300.6875 305.3125 304.375 300.625 303.125 300.625 303.5625 303.6875 299.25 292.125 289.5625 294.625 299.1875 302.4375 297.875 295.125 304.625 305.1875 301.9375 306.25 309.125 313.5 314.75 310.875 310.0625 310.6875 311.3125 311.5625 312.1875 313.1875 314 314.0625 314.3125 314.1875 315.8125 316.125 317 318.5625 318.8125 322.0625 326.0625 326.375 324.625 327.5625 325.875 325.5625 325.875 326.125 325.5 325.625 327.375 327.5625 324.8125 327.5625 328.0625 330.0625 331.375 332.375 329.8125 331.875 332.5 333.875 336.25 335.25 338.4375 338.0625 336.875 336.625 337.375 336.1875 333.875 337.125 339.4375 339.25 340.8125 340 337 333.625 330.4375 328.9375 330.0625 330.3125 330.9375 330.75 331.875 332.625 334 335.0625 333.4375 332.8125 331.4375
330.625 304 287.4375 297.5625 304.1875 304.25 301.625 297.375 292.75 286.3125 273.875 271.9375 269.125 268.625 268.625 265.25 263.875 263.1875 267.9375 274.9375 275.875 276.4375 277 273.1875 245.3125 250.125 257.375 261.125 255.0625 246.125 240.1875 239.5 244.625 251.25 256.375 257.6875 256.625 256.5625 258.125 260.25 260.625 257.5 250.9375 247.3125 250.125 247.6875 248.0625 247 243.5 238.3125 234.8125 229.875 225.6875 221.125 221.5625 210.0625 194 200.125 203.625 204.5625 201.625 191.4375 208 214.1875 224.5 234.3125 240.8125 239.5 246.875 254.4375 260.75 268.1875 272.5625 271.5 280.5625 290.1875 293.9375 293.5625 291.3125 289.75 291.875 291.6875 289.875 283.3125 278.8125 281.5 283.5625 284.9375 284.8125 284.1875 281.8125 281.25 280.375 277.8125 277.4375 277.4375 274.25 266.125 257.5625 260.4375 257.375 250.5625 239.875 243.875 240.875 240.75 241.875 235.3125 238.875 243.0625 253.4375 253.875 245.3125 244.25 252.0625 256.6875 256.8125 254.6875 253.8125 249.8125 245.5625 244.9375 243.0625 238.5625 235.625 235.25 239.25 239.375 238.0625 232.6875 228 222.25 219.5 217 215.5625 215.375 218.3125 218 218 233.8125 226.6875 224.9375 229.8125 239.1875 238 237.5 236.875 232.1875 231.5 228.125 229.0625 222.5 215.6875 211.1875 214.6875 214.0625 212.9375 205.9375 208.5625 214.1875 213.0625 215.0625 217.625 214.0625 207.3125 201.5 193.5 196.125 199.0625 210.5625 212.625 221.0625 216.4375 220.0625 215.9375 205 214.375 218.0625 216.8125 210.0625 194.8125 197.75 208.8125 214.0625 222.375 226.5625 219.25 212.375 208.625 189.5625 181.375 179.375 174.4375 185.375 191.1875 207.4375 224 241.1875 252.3125 258.0625 238.9375 219.3125 237.625 248.5 248.1875 250.6875 249.4375 249.1875 252.3125 256.125 260.25 261.25 267 272 269.4375 248.875 252.625 258.3125 256.8125 265.75 276.875 272.5 268.5 264 260.0625 260.9375 262.4375 263.0625 260.4375 254.5 252.625 249.9375 245.9375 242.625 243.75 242.4375 240.1875 232.8125 222.375 223.1875 223.625 215.5625 208.375 207.9375 223.9375 233.4375 234.5625 236.75 234.6875 233.875 226 218.1875 230.625 227.9375 239.1875 241.375 244.75 235.6875 239.375 244.875 250.625 255.1875 254 249 239.75 244 239.625 258.375 267 257.625 250.5625 243.625 251 269.625 275 277.5625 275.1875 281.75 286.1875 288.625 291.8125 293.6875 293.625 295.5625 297.3125 300.3125 302.8125 303.8125 304.75 306.6875 307.125 305.375 303.9375 294 289.25 293.125 295.75 298.3125 305.625 303.5625 305.4375 308.25 308.375 306.75 307.5625 310.6875 314.25 315.875 311.8125 311.75 312.125 313.1875 313.75 314.4375 315.625 315.8125 316.375 316.875 317.5625 318.125 318.6875 318.875 320 322.125 324.75 326.375 324.4375 325 324.5 321.125 322.0625 323.375 320.875 320.75 321.375 324.625 323.5 322.5 326 327.0625 329.75 328.5 329.625 327.9375 329.8125 329.0625 330.1875 332.3125 333.75 336.5 339 338.75 339.0625 339.0625 339.8125 339.0625 340.75 340.4375 340.3125 339.375 338.5 335.25 331.0625 330.8125 328.75 327.625 327.8125 328.625 328.1875 329.5 331 332.25 332.5625 331.375 330.75 330.5
329.5625 316.5625 291.625 303.875 303.4375 295.6875 292.625 289.5 289.3125 285.875 277.25 263.25 262.25 264.0625 263.8125 265.625 266.6875 265.0625 266.5 270.3125 271.75 276 277.1875 277.875 253.875 247.5 256.3125 263.5625 261.4375 255.0625 247.25 243.125 249.3125 254.375 256.75 260.5 260.125 263.1875 265.5625 261.5 257.375 258.8125 251.4375 246.1875 247.875 246 245.875 243.375 236.3125 228 228.4375 224.3125 217.0625 218.6875 217.75 213.3125 197.5625 167 171.8125 192.4375 194.5 191.5625 199.5 206.3125 215.9375 226.625 229.1875 216.25 239.5 244.8125 255.375 262.375 268.125 269.5 277.9375 283.875 288.8125 291.9375 292.25 290.625 291.625 292.125 291.1875 288.75 282.9375 278.9375 280.625 281.9375 284.375 281.5 281.5 280.5625 280.5625 279.1875 278.5625 278.1875 273.9375 266.375 258 259.8125 256.8125 244.1875 245.9375 250.875 248.4375 247.6875 245.3125 241.5 243.125 243.8125 253.1875 256.25 251.625 246.8125 253.6875 256.6875 258.25 257.125 255.8125 252.8125 250.875 244.875 241 238.125 240.5625 240.4375 239.6875 244 242.5625 236.25 230.875 226.4375 224.8125 219.0625 218.5625 221.5 223.5625 224.0625 222.625 220.1875 225.5625 223.3125 234.75 241.3125 233.25 231 228.8125 227.1875 228.0625 224.0625 221.4375 224.0625 218.75 211.625 205.875 196 200.125 198.625 200.9375 203.25 205.8125 207.75 206.1875 211.5625 213.0625 212.9375 213.75 215.4375 216.25 219 219.625 223.75 223 216.8125 216.875 211.3125 217.5 220.875 221.4375 218.6875 210.4375 194.375 197.625 210.25 213.375 221.9375 207.1875 182.3125 177.0625 173.6875 174.75 168.5 173.875 182.0625 184.4375 195.625 217.5625 240.125 251.3125 255.6875 254.375 233 233.4375 250 250.5625 250.1875 246.5 237.75 239.125 249.1875 250.625 252.8125 262.3125 267.9375 273.625 269.5625 261.125 262.875 268.375 274.8125 273.5625 271.1875 267.75 260.8125 255.375 254.4375 252.75 253.8125 249.375 254.75 256.8125 254.625 250 247 248.4375 245.375 243.125 241.0625 230.375 228.1875 228.0625 220.125 211.875 208.3125 203.875 217.75 229.9375 238.875 243.5625 242.9375 238.5 234.0625 231.9375 236.25 242.1875 243.1875 249.375 237.0625 237.125 237.375 253.3125 258.5625 260.125 259.0625 255.5 260.5 255.75 264.0625 267.875 269.1875 271.9375 276.125 279.75 280.4375 278.0625 279.4375 280.25 284.125 288.875 293.75 296.125 294.5 297.625 298 299.625 298.9375 301.5 305.6875 306.8125 310.125 303.6875 294.3125 298.125 298.3125 295.9375 296 296.375 299.0625 305.625 307.0625 307.125 310.75 311.25 310.625 309.75 311.4375 312.4375 316.5625 315.0625 313.625 313.6875 314 314.9375 316.125 316.375 317.6875 318.5 318.875 319.375 319.3125 319.25 320.125 323.3125 324.75 327.6875 326 326.125 324.1875 321.125 318.5625 319.0625 321.25 318.375 317.4375 320.1875 321.9375 320.375 320.25 324.625 326.0625 327.5625 325.8125 326 325 326.6875 326.375 327.875 334.625 335.875 335.625 334.5 334.8125 335.3125 334.5625 335.25 335.1875 336.25 336.8125 336 335.4375 334.75 336.1875 334.125 329.8125 327.1875 325.5625 326.3125 326.5625 327.1875 328.125 328.875 329.8125 329.5 330.0625 330.375 331
317.8125 320.9375 302.25 312.125 293.875 290.0625 287.375 284.6875 283.4375 276.0625 263.75 258.5625 257.3125 258.8125 263.8125 266.375 267.375 270.25 268.0625 263.875 266.875 270.9375 273.3125 276.75 261.25 250.125 259.875 266.3125 266.6875 258.875 248.0625 234.375 246.25 251.8125 255.25 260.125 265.875 267.0625 264.9375 261.0625 251.375 255.875 250.6875 240.375 244.75 244.1875 241.875 237.625 233.8125 227.125 225.4375 220.75 213.5625 214.3125 214.5625 210.8125 203.875 191.5625 188.4375 191.25 181.5 182.0625 170.8125 169.75 189.625 207.6875 213.625 212 222.125 232.3125 243.4375 251.625 259.75 266.6875 273.8125 280.125 283.5 287.6875 290 289.0625 292.1875 291.9375 291.5 290.9375 289.1875 283.125 281.625 279.8125 285.625 283.5 280.9375 281 280.3125 278.1875 277.125 276.6875 274 269.1875 267.3125 264 261.125 258.375 256.625 255.3125 252.125 245.4375 245.5625 248.375 251.4375 253.375 256.5 260.75 255.4375 247.375 251.1875 254.1875 253.875 259.3125 257.625 254.875 250.3125 245.875 245.75 240.5 245.625 245.875 245.9375 248.25 246.25 241.9375 237.0625 231.25 229.375 224.4375 222.5625 225.875 230.5 233.5 221.375 216.6875 228.375 234.8125 242.625 233.5625 237.125 228.25 221.8125 218.375 217.8125 217.125 216 216.5 215.875 210.6875 203.8125 187.25 191.75 195.3125 188.875 185.4375 193.8125 198.1875 200.0625 201.5625 206.375 210.9375 213.75 217.0625 218.6875 221.5 224.25 225.8125 227.1875 219.875 214.1875 217.4375 214.1875 215.4375 221.6875 223.1875 220.625 213.375 205.125 209.625 206.6875 205.8125 196.125 180.875 173 170.125 171.8125 168.9375 175.75 184.5 200.0625 218.1875 228.125 238.0625 242.1875 255 257.5 251.375 233 252.4375 254.8125 250.75 246.375 237.1875 237.6875 243 246.9375 248.5 257.4375 264.6875 268.1875 271.75 273 273.4375 277.5 276.5 270.5 264.5625 266.75 259.9375 253.125 248.6875 244.125 238.3125 239 243.5 247.4375 251.6875 254 253.0625 250.75 249.4375 246.6875 244 236.9375 229.9375 228.8125 225.125 213.6875 210.5625 208.5 205.125 205.0625 214.5625 241 248.125 246.4375 238.5 234.8125 241.5 247.625 253.25 252.1875 241.375 232.75 234.1875 251.625 247.6875 247.375 255.4375 265.75 265.75 262.0625 260.5625 262.5625 272.625 273.1875 275.0625 278.8125 281.4375 283.9375 287.6875 291.875 294.4375 297.3125 296.5625 292.75 297.1875 300.5625 301.125 304.375 304.5625 305.3125 305.875 307.4375 309.1875 307.6875 307.6875 301.375 303.1875 303 300.4375 298.125 304.5625 305.75 309.25 306.875 309.625 312.8125 313.5 312.6875 313.375 312.5 315.1875 317.125 315.5 315.6875 317 318.5625 320.375 321.25 321.625 321.5 321.4375 322.875 322.75 322.5625 324.6875 324.75 324.625 325.125 325.3125 324.3125 323.125 320.625 317.375 317.4375 319.3125 318.3125 315.8125 318.25 319.9375 318.3125 318.6875 323.6875 324.75 320.75 321.625 322.0625 320.75 323.1875 325.875 328.125 333.75 334 331.125 329.0625 333.875 334.3125 333.1875 332.6875 335.4375 333.4375 333.8125 334.75 332.25 330 330.8125 329.4375 329.8125 326.75 326 326.5 327.125 328.25 328.0625 328.75 328.875 329.3125 329.75 330.25 331.0625
298 313.0625 320.3125 312.375 291.0625 283.375 275.125 272.1875 273.1875 254.4375 253.375 258.4375 263.8125 263.5625 267.75 270.8125 267.9375 270.5625 271.5625 264.625 259.1875 262.875 265.3125 267.9375 266.5 267.375 273.4375 271.9375 269.8125 263.5 254.375 244.9375 250.375 255.8125 261.5 263.4375 269.625 268.875 267.5625 257.125 247.9375 249.6875 248.8125 240.3125 240.8125 242.4375 238.1875 231.25 230.9375 233 229.1875 222.1875 203.4375 187.75 206.5625 207.6875 204.0625 199.625 197.9375 190.875 179.625 167.75 116.3125 112.8125 152.25 194.25 217 221.5 217.75 213.875 227.0625 240.75 255.0625 262.8125 263.1875 271.375 275.625 278.5 283.4375 284.5625 288.8125 291.0625 291.75 291.3125 290.1875 287.3125 287.25 287.375 286.9375 283.5625 279.125 279.75 277.6875 276 274.8125 275.4375 274.25 270.4375 268.5 266 264.875 259.9375 257.375 251.5625 246.5625 247.375 244.6875 245.1875 253.125 251.0625 262.625 263.0625 261.1875 258.625 258.75 259.0625 260.5 259.1875 256.25 253.9375 251.125 253.4375 248.9375 246.25 246.5625 250.75 250.9375 248.1875 244.6875 239.5625 235.9375 235.5 232.125 227.5 228.5625 232.25 237.0625 243.25 232.9375 226.8125 234 243.5625 234.3125 234.875 228.9375 231.8125 223.875 220.125 221 217.3125 214.5625 212.6875 212.0625 209.1875 206.1875 199.25 188.625 196 190.75 188.0625 178.9375 182.125 189 197.8125 203.0625 202.125 207.1875 207.25 208.3125 213 214.8125 220.3125 225.375 227.4375 219.0625 222.25 220.375 213.75 218.0625 224.4375 223.4375 219.875 216.25 216.125 204.4375 192.4375 184.3125 179.125 174.5625 173.125 172.5 176.8125 178.6875 187.5 218.0625 225.375 234.8125 240.125 244.9375 249.1875 255.9375 261.375 255.8125 259.3125 256.75 254.9375 248.5 239.5 242.3125 247.4375 252.4375 255.0625 255.8125 261.4375 264.5625 270.3125 275.75 279.4375 274.5625 267.9375 261.875 254.875 262.25 260.3125 250.875 244.5 237 220.25 205.375 229.3125 238.3125 245.625 246.6875 244.375 250.1875 248.75 240.0625 238.0625 233.625 225.9375 220.125 218.75 214.0625 212.5625 213.75 211.3125 209.875 227.625 239.0625 247.8125 248.375 228.3125 231.75 237.5 245 253.875 258.125 255.5 252.6875 235.6875 245.875 258.5 260.0625 262.4375 267.9375 270.25 263.375 263.3125 264.125 269.375 276.0625 281.8125 285 287.375 288.25 291.0625 291.625 294.8125 294 293.4375 296.8125 298.3125 297.5625 300.4375 303.4375 302.625 304.875 306.5 307.9375 309.8125 311.5 311.625 308.75 309.125 307.8125 300.625 301.625 301.875 314.1875 312.875 308.4375 307.3125 314.75 316.125 316.3125 317.125 317.25 318 318.8125 318.5625 319.5 319.5625 315.125 314.875 317.5 318 316.9375 316.1875 319.75 322.625 322.4375 322.8125 320.625 319.1875 322.75 322.875 321.375 319.5625 320.875 319.0625 316.3125 314.875 314.9375 315 316.8125 317 316 317.0625 319.8125 320.5625 318.0625 318.6875 319.5 323.625 325.6875 327.6875 329.375 331.1875 331.8125 328.375 330.25 332.5 332.9375 330.1875 330.9375 335 333.75 331.9375 331.5625 332 328.875 328.5 327.375 325.875 325.4375 325.375 326.4375 327.1875 328.4375 328.375 328.6875 328.9375 329.375 330.125 330.6875 331.5
282.1875 301.8125 312.8125 313.875 299.4375 275.4375 257.875 258.8125 265.875 261.75 263.8125 265.3125 269.125 265.125 268.0625 271.5 268.375 270.875 270.5 262 249.625 259.375 262.4375 270.375 275.8125 275.8125 272.625 274.4375 271.6875 265.8125 257.4375 255.75 256.5 261.625 265.1875 271.5625 270.9375 272.0625 271.375 261 247.9375 248.375 248.0625 241.1875 236.875 234.75 235.625 234.3125 230.25 229.125 226.625 221.375 211.3125 198.875 202.375 209.3125 206.6875 202.4375 202.1875 196 186.1875 172.1875 133.9375 118.75 148.875 200.875 222.9375 230.1875 227.8125 219.1875 229.8125 244.375 254.75 257.8125 261.9375 261.125 266.375 272 276.25 280.625 285.0625 287.3125 290.25 291.3125 290.8125 290.0625 289.1875 288.5625 289.0625 289.125 288 286 282.25 277.3125 272.875 270.9375 272.625 272.4375 270.875 266.75 262.3125 258.0625 253.5625 251.25 248.625 250.8125 255.375 262 261.375 262.25 266.6875 265.4375 264.5625 262.875 261.875 261.3125 259.375 257.6875 258.375 255.75 255.4375 254.6875 251.5625 252.375 253.625 253 248.4375 244.75 238.5 240.9375 243.1875 242.4375 238.9375 233.5 236.5625 237.8125 243.875 245.875 239.6875 240.5625 246.0625 244.375 230.4375 223.625 223.6875 222.5625 224.0625 219.8125 217.1875 215.875 215.5 215.5 213.75 214.125 211.4375 211.8125 207.25 202.25 196.8125 193 189.5 187.6875 183.6875 187.9375 193.1875 199.3125 202.25 205.9375 206.25 204.0625 204.625 213.25 222.8125 228.75 227.3125 225.9375 227.0625 226.125 227.4375 224.5 207.875 205.5625 216.25 206.6875 190.5 178.3125 171.75 170.9375 171.875 175.5625 177.625 182.125 185.375 206.375 228.375 233.875 239.6875 243.5625 248.25 251.75 257.25 258.8125 261.25 263.5 260.375 256.5625 250.6875 243.5625 246.4375 249.625 254.375 259.9375 261.6875 266 269.9375 274.8125 279.6875 276.3125 268.625 260.0625 254.5625 244.5625 254.75 257.5625 250.375 243.25 234.5625 210.125 201.75 221.625 233.0625 242.1875 241.5625 239.125 246.5 246.25 237.75 236.375 236.5 224.25 216.625 218.875 219.5 216.4375 217.5 217.5625 213.5 220.1875 234.875 245 249.6875 244.9375 241.875 245.9375 250.875 256.0625 261.1875 265.75 264.125 251.5 252.3125 259.25 261.5 268.75 273.3125 272.9375 269.875 270.8125 267 271 276.875 281.125 284.5625 286.4375 284.1875 285 285.3125 287.5 290.8125 293.6875 297.25 300.1875 299.75 300 302.4375 298.0625 303.125 295.0625 304.5625 307 310.4375 308.0625 304.9375 305.8125 311.625 310.4375 312.3125 314.3125 314.625 309.8125 315.25 317.1875 318.125 316.6875 313.4375 314.3125 317.1875 316.5 315.8125 314.375 316.375 318.3125 314.4375 314.9375 315.125 313.375 314.5 314.75 316.1875 319.9375 318.125 316.5 316.5625 320.6875 322.375 321.9375 318.625 315.9375 316.6875 317.125 315.125 312.5625 311.875 312.625 313.4375 313.5 313.125 312.125 314.125 316.8125 313.875 314.875 316.625 320.5 322.5625 324.8125 326.4375 327.375 327.6875 328.625 330 331.1875 329.8125 329.375 331.75 332.875 331.5625 329.5625 329.875 329.875 328.5 326.5 325.4375 325.1875 325.5625 326.125 326.5 327.1875 327.5 328.1875 328.0625 329 329.4375 330.1875 331.25 331.25
280 298.625 308.4375 313.125 308.75 298.875 287.0625 261.3125 261.625 269.875 270.5 268.25 264.25 263.5625 266.6875 270.3125 271.3125 270.375 271.625 264.625 259.875 258.625 266.5625 274.25 276.6875 275.4375 272.9375 275.1875 271.3125 265.1875 260.8125 260.25 261 264.75 273.8125 276 270.9375 271.6875 272.5 268.6875 252.5625 256.5 250.25 241.25 233.9375 224.8125 224.9375 229.25 224.75 223.4375 218.75 221.9375 220.5 216.5 212.75 211.3125 210 208.6875 207.9375 199.0625 201.75 201.25 192.5 183.875 181.9375 200 223.75 230.875 233.25 233.5625 239.5 243.5 248.625 256.0625 261.0625 260.5625 264.4375 271.1875 273.6875 275.875 280.625 283.8125 287.6875 290.1875 291 290.6875 290.5625 289.9375 290 289.9375 289.1875 287.5 283.375 275.625 273.1875 269.9375 268.875 269.6875 269.375 267.25 262.125 261.9375 258 245.5 246.5 250.8125 257.8125 262.0625 269.5 268.4375 260.4375 256.8125 258.9375 258.6875 260.0625 258.0625 257.75 263.1875 261 258.9375 257.8125 255.5 257.4375 256.3125 252 246.6875 241 236.9375 240.875 244.4375 247.3125 246.625 241.625 240.5 244.25 247.875 250.625 249.0625 248.375 248.3125 243.0625 238.375 225.0625 221.4375 222 223.125 223.625 223.6875 219.875 217.625 217.75 216.8125 217 216.0625 220.75 219.625 221.4375 208.4375 201.25 193.5 187.1875 186.375 187.9375 188.875 181.75 185.5 189.375 194.25 199.25 206.25 202.5625 209.25 223.5625 231.3125 231.5 230.3125 228.25 231.6875 231 221.6875 194.9375 188 189.75 176.8125 164.75 156.4375 151.75 162 172.25 179.0625 182.1875 185.625 191.8125 208 225.125 219.625 233.125 242.875 242.4375 248.1875 253.6875 257.75 261.5 263.8125 264.0625 259.625 253.625 245 247.8125 252.375 257 260.5 265.625 268.625 274.5 279.625 280.125 270.9375 257.9375 238.1875 225 233.3125 246.125 249.4375 248.25 242.8125 236.375 228.6875 224.625 229.0625 234.6875 237.5625 233.5 234.5 240.75 241.5 239.1875 238.75 234.75 223.5 217.875 217.9375 223 220.9375 220.4375 222.6875 218 219.125 218.9375 232.5625 237.125 249.5625 246.8125 252.625 257.3125 259.3125 262.5625 265.875 266.6875 260.5625 262.4375 268.4375 265.4375 269.3125 273.125 276.1875 275.125 271.9375 270.875 273.25 275.6875 276.125 278.1875 282 280.25 280.4375 280.9375 285.0625 291.875 294.3125 296.6875 297.375 296.125 299.375 299 298.5625 291.1875 276.6875 280.25 290.625 306.75 293.125 287.25 289.75 304.375 311.4375 313.75 314.6875 311.75 308.625 312.3125 314.875 315.1875 312.25 311 311.5 310.375 310 312.3125 313.8125 318.375 314.75 313.1875 312.5625 313.8125 315.6875 317.4375 317.75 318 317.125 314.6875 313.3125 316.3125 321.125 319 319.5625 319 317.125 313.875 312.6875 309 309.1875 310.9375 312.0625 311.125 310.3125 310.25 310.9375 312.1875 313.625 312.625 312.3125 312.3125 312.9375 315.5 319.875 323.25 324.3125 325.375 326.6875 327.625 328.3125 328.6875 326.9375 328.375 331.3125 328.75 327.5 328.375 327.5 325.6875 325.5 325.625 326.75 326.875 326.75 327.5 327.6875 328 328.1875 328.75 329.25 330.125 330.5 330.9375 331.6875
286.875 302 305.6875 313.0625 313.6875 307.8125 298.625 265.8125 274.4375 276.3125 277.125 269.75 269.3125 262.9375 262.5625 266.0625 271.8125 270.5 271.3125 263.6875 258.6875 252.375 263.75 274.5625 279.125 269.3125 274.5625 271.3125 271 261.3125 253.3125 256.875 264.3125 271.375 276.9375 279.3125 275.9375 273.75 273.875 273.25 266.9375 260.0625 250.25 237.75 231.125 223.4375 223.5 225.8125 221.375 222.5 220.9375 221.625 222.9375 220.375 220.75 217.4375 212.3125 214.5 214.125 203 206.5 205.5625 210.625 205.125 191.375 187.375 223.8125 231.625 234.9375 237 242.75 243.9375 250.375 254.875 259.3125 261.9375 267.25 272 274 272.75 277.1875 281.25 284.875 288.0625 290.25 291 290.5 289.875 289.4375 289.5 289 288.125 284.9375 283.375 281.3125 274.625 269.25 271.75 265.8125 266.1875 265 261.1875 253.8125 248.6875 257.3125 260.1875 254.375 270.375 271.5625 267.375 263.1875 260.1875 255.375 259.1875 259.25 262.25 262.375 264.125 262.9375 263 262.3125 261.4375 258.8125 253.8125 249.625 246.6875 243.25 240.5 246.1875 248.5625 250.1875 248.5 244.9375 246.8125 251.625 251.0625 247.375 246.5 243.125 242.375 239.8125 235.25 227.375 225.6875 226.625 226.8125 224.3125 220.625 218.25 216.75 214.5625 215.125 222.75 222.8125 226 226 223.9375 216.375 205 196.375 185.625 177.125 181 179.625 173.875 179.625 180.1875 183.75 187.75 195.1875 190.3125 202.6875 222 229.875 232.8125 233.75 233.5 233 231.375 226.0625 219.5 196.3125 187.1875 163.8125 136.125 124.0625 132.25 157.5625 176.5625 183.875 191.4375 195.75 201.5625 217.6875 218.4375 224.1875 236.1875 239.875 242.5625 247.875 249.5625 255.1875 260.375 265.9375 265.3125 260.125 254.4375 247.125 250.3125 255.5 261.1875 262 268.125 272.3125 278.25 281 276.75 268.0625 222.125 178.5625 186 211.6875 233.5 240.6875 243.5625 238.625 229.3125 211.875 212.375 227 232.4375 235.0625 234.4375 233.375 233.625 233.1875 237.625 236.25 233.125 226.25 218.8125 219.3125 220.9375 225.6875 227.875 227.875 223.5625 224.5 229.4375 235.1875 238.0625 240.625 250.25 251 258.875 262.0625 263 264.5 269.625 265.5625 264 271.875 274.5 274.8125 272.9375 277.375 278.5 277.1875 274.125 267.875 271.875 274 274.375 276.75 279.875 278.6875 277.5625 283.9375 292.5625 290.3125 287.625 294.4375 297.9375 296.6875 297.9375 295.9375 282.875 271.875 274.375 285.625 291.125 282.8125 285.8125 285.125 298.1875 292.9375 297.625 305 309.5 307.6875 310.9375 314 312.1875 307.625 308.75 309.5 310.0625 310.25 310.8125 316.875 317.75 312.5 308.875 309.75 311.6875 311.0625 315.3125 316.75 316 315.0625 314.75 316.75 318.8125 319 317.4375 318.4375 315.875 315.375 313.6875 308.25 305.6875 307.8125 311.125 309.9375 309.9375 310.4375 310.125 310.4375 311.125 311.75 311.875 312.875 312.5625 312 313.5 314.0625 319 319.375 320.625 321.625 323.125 322.4375 324.125 323.125 325.875 328.5 326.9375 325.625 326.3125 324.8125 323.1875 324.875 325.5 325.875 327.0625 327.625 328.5625 328.5625 328.625 328.875 329.125 329.3125 329.4375 330 331.0625 331.6875
300.0625 308.5625 308.75 312.9375 318.8125 313.1875 296.8125 271 281.3125 286.75 283.6875 276.25 275.25 270.1875 268.8125 269.375 271.6875 271.375 263.25 259.75 252.5 259.375 257.75 266.3125 277.0625 278.875 277.6875 273.625 277.5625 271.5 249.25 260.375 271.5 276.375 279.3125 281.125 280.1875 280.25 278.4375 275.625 270.75 261.9375 252.3125 237.0625 233.8125 228.6875 208.375 204.8125 214 218.4375 218.0625 223.875 224.125 226 225.8125 223.25 211.8125 217.3125 217.9375 214.4375 209.5 205.875 207.875 217.3125 219.8125 222.0625 227.6875 228 234.5 239.1875 242.9375 240.625 248.9375 249.1875 254.875 256.6875 265.125 270 272.4375 274 276 280.1875 282.3125 285.4375 288.6875 290.125 290.125 290.5 288.6875 288.1875 288.9375 288.9375 287.8125 286.6875 284.6875 282.25 280.875 276.6875 265.875 262.6875 261.875 259.4375 257.375 252.375 262.75 269 266.875 272.4375 271.5625 270.125 266.9375 262.0625 262.8125 266.0625 266.1875 266.625 266.875 264.875 264.125 263.9375 262.5625 259.875 256.875 255.5 252.4375 248.75 245.25 246.875 247.9375 253.5 255.1875 255 253.375 254.375 254.375 248.75 244.4375 241.5 239.25 234.25 233.4375 234.0625 231.5 229.4375 225.625 220.6875 219.8125 222.875 219.6875 216.6875 216 217.0625 221.375 228 229.125 224.0625 218.3125 212.9375 209.5 202.75 198.5625 187.0625 177.5 182.75 173.4375 171.8125 187.3125 196 194.25 188.6875 186.75 201.3125 218.25 224.0625 227.625 232.3125 234.8125 233.5625 230.5625 222.25 208.25 209.9375 192.0625 168.5625 144.4375 132.8125 153.6875 172.6875 183.875 191.0625 196.125 222 222.6875 240.25 236.4375 238.0625 238.1875 240.0625 238.5 248.75 250.5 254.5625 259.875 263.125 267.375 264.5625 259.9375 250.6875 253.5625 257.875 264.3125 268.3125 273.75 277.125 281.75 280.75 272.3125 260.75 231.125 158.9375 155.25 196.25 223.5 233.25 237.4375 227.9375 214 209 224.0625 230.375 235.125 237.5 238.5 237.5625 236.25 232.875 232.375 228.5625 226.375 226.25 223.5625 219.8125 222.125 225.375 225.9375 234.1875 237.125 233.375 237.75 235.6875 241.9375 245.5625 248.5 251.6875 258.1875 259.25 257.3125 261.0625 271.875 270.25 267.8125 273 277.4375 276.9375 273.75 276.9375 279.875 277.6875 273.8125 270.125 272 274.9375 277.5 277.1875 279 281.625 283.6875 287.4375 289.4375 292.0625 292.6875 292.4375 298.625 293.5 294 294.25 286.1875 275.3125 273.1875 275.4375 278.3125 281.5625 285.0625 288.3125 292.5625 293.375 292.5 297.75 303.9375 302.75 312.0625 312.875 310.25 307.25 307.8125 309.0625 311.0625 311.875 314.9375 317.1875 316.8125 309.125 306.5625 308.9375 309.4375 308.9375 312.5625 313.5625 313.25 316.1875 317.4375 318.5625 318.0625 317.75 316.9375 317 314.625 312.6875 308.1875 305.5625 305.5 305.875 307.75 308.1875 308.8125 309.375 309.6875 309.25 310.375 311.5 311.8125 312.9375 312.375 312.8125 314.125 314.6875 314.625 315.25 316 316.75 319.5 318.875 318.5625 321 323.75 324.0625 323.875 323.5 323.25 323.25 324.3125 324.75 324.875 325.8125 326.5625 327.3125 327.3125 327.4375 328 328.5625 328.5625 329.0625 329.125 329.625 330.375 331.5
309.5625 315.4375 319 312.875 323.5625 316.0625 289.0625 283.6875 287.5 289.75 281.625 279.25 280.125 277.6875 271.625 258.1875 264.9375 273.125 270.125 260.125 258.6875 256 252.6875 260.9375 271.0625 279.375 281 280.375 284.75 285.1875 277.75 278.375 277.9375 277.875 279.375 281.75 279.6875 279.1875 276.875 275.1875 272.25 267.25 254.9375 237.125 233.6875 227.8125 207.4375 205.375 215.625 215.875 221.3125 225.0625 226.1875 229.1875 228.5 226.75 216.75 216.875 216.75 210.25 210.5625 214.4375 217.3125 222.4375 224.625 224.625 225.5625 229.625 233.125 237.9375 241.6875 244 248 251.3125 255.0625 258.6875 262.6875 266.4375 268.625 271.1875 273 276.8125 279.25 283.125 285.75 288.6875 289.625 289.3125 286.8125 288.125 289 288.75 288.1875 287.8125 286.5625 285.1875 283.125 280.875 276 268.9375 264.625 263.625 264.8125 256.1875 265.6875 273.625 271.25 274.0625 272.4375 269 265.9375 264.25 268.3125 269.5 268.5625 265.75 262.0625 263.125 259.5 257.4375 260 258.5625 259.1875 258.75 253.6875 252.125 252.9375 250.875 253.375 257.25 256.125 255.3125 253.625 253.8125 248.9375 249.0625 246.75 246.875 241.75 229.9375 231.8125 230.4375 225.4375 224.5625 223.8125 221.8125 225.6875 229 224.25 220.0625 221.875 218 227.25 221.9375 224.25 221.0625 217.125 211.875 213.3125 219.5625 213.125 196.375 180.4375 176.9375 180.375 186.25 192 187.3125 182.9375 173.5625 175.9375 196.875 207.6875 217.625 222.125 231.625 232.375 221.3125 226.5625 226.4375 204.5 193 190.25 200.625 179.625 162.125 179.4375 193.125 196.0625 200.625 206.5625 239.375 243.8125 243.875 242.625 245.4375 242.625 239.75 241.0625 248.3125 257.125 255.1875 258 262.9375 268.0625 266.75 260.6875 251.25 255 257.9375 263.4375 269.625 274.875 280.9375 282 278.5625 270.25 260 246.25 205.6875 161.625 184.25 216.75 231.5 224 217.25 202.4375 215.5 229.25 234.125 237.3125 239.6875 241.375 240.5625 238.875 236.3125 234 228.8125 227.3125 226.875 225.25 221.9375 219.5 218.6875 218 232.8125 230.9375 238.6875 239.375 241.375 246.4375 249.0625 251.5 251.1875 252.5 254.5 259.0625 262.9375 271.625 275.4375 274.125 276.5625 277.6875 277.3125 280.125 279.25 279.625 274.6875 272.8125 272.8125 276.5 279.3125 281.5625 282.4375 280.25 279.5625 285.375 291.0625 292.6875 293.6875 295.875 296.0625 292.0625 287.25 296.25 290 289.0625 289.9375 287.1875 277.875 280.9375 286.5 287.75 292.9375 297.8125 301.5625 303.5625 305.875 308.125 310.9375 311.5 310.3125 311.625 309.875 310.125 311.375 313.1875 312.625 312.6875 316.375 315.8125 311.5625 309.125 308.25 307.3125 308.3125 311.875 311.25 312.75 316.625 317.875 318.5 317.1875 316.4375 315.4375 314.125 311.625 305.5 303.6875 304.5625 305.3125 306.4375 306.9375 307.125 308.0625 308.5625 309.75 309.8125 310.375 311.375 312.5 312.4375 313.0625 313.5625 314.9375 316.1875 315.9375 316.125 316.1875 316.8125 317.6875 318 319.0625 319.5 320.6875 321.3125 322.375 323.1875 323.3125 324.125 324.3125 325 325.5 326.1875 326.6875 327.3125 326.9375 327.8125 328.125 328.6875 329.0625 329.3125 330.4375 331.4375 332.25 332
305.75 313.9375 322.4375 327.3125 325.125 317.25 316.0625 305.25 285.375 283 278.375 269.3125 276.5 282 276.0625 265.8125 267.3125 273.9375 274.3125 270.0625 265.3125 259.1875 255.875 255.0625 263 275.1875 274.8125 272.875 272.5 286.9375 290.25 289.0625 283.125 280.125 278.3125 277.0625 274.625 275.75 276.4375 275.875 275.1875 270.0625 257 241.25 236.1875 230.5625 227.75 218 215.5625 216.8125 221.5625 229.75 230.0625 229.0625 228.5625 227.0625 219.1875 216.8125 213 212.4375 207.5625 215.8125 220.1875 221.9375 223.6875 223.25 223.5 224.9375 231.4375 233.5 237.875 241.5 244.625 248.125 253.0625 256.3125 260.125 262.375 264.125 267.875 270.1875 272.5625 275.3125 280.625 283.25 285.8125 287.875 286.9375 286.8125 288.5625 287.625 287.875 287.875 287.75 286.8125 285.4375 283.8125 281.1875 274.75 270.25 267.875 269.75 270 275.25 275.0625 275.4375 273.6875 273.875 271 268.4375 269.6875 270.1875 271.375 269.125 265.0625 261.875 259.6875 260.5 260.875 261.125 262.0625 258.1875 260.5625 259.6875 255.75 258 257.9375 257.6875 260.1875 256.75 252.0625 250.375 248 249 248 244.5 239.625 240.8125 237.5 233.6875 231.375 227 225 226.6875 230.375 231.3125 231.8125 229.1875 229.0625 222.9375 222.6875 230.4375 226.375 217.0625 224.4375 223.75 222.0625 215.75 217.25 211.5 218.3125 214.875 205.1875 189.5 179.75 176.4375 184.25 185.6875 180.4375 169.375 170.5 189.0625 198.875 206.375 214.6875 226.875 233.875 235.375 237.625 230.8125 199.4375 197.75 202.75 216 194.625 197.4375 204.5625 218.75 224.125 213.75 222.25 243 249.8125 245.375 249.1875 247.375 240.4375 242.375 249.25 247.25 259.4375 259.0625 260.8125 265.625 269.3125 268.875 261.8125 252.1875 255.1875 257.375 262.25 272.1875 279.8125 282.875 281.9375 277.1875 270.0625 261.0625 249.4375 222.5625 183.875 192.875 220.3125 226.625 225.4375 223.375 226.6875 230.5625 233.8125 236.625 239.8125 241.6875 242.75 242.1875 240.625 239.4375 237.25 232.375 229.5625 227 224.5625 222.5 217.6875 215.625 222.5 228.25 228.0625 225.25 232.25 243.3125 249.5 252.625 255.8125 255.4375 255.125 258.375 258.6875 262.9375 266 271.0625 274.8125 275.4375 275.75 271.125 275.0625 281.875 279.875 277.125 281.5 276.8125 276.8125 278.3125 281.75 285 284.4375 282 288.0625 292.25 292.4375 295.25 294.9375 294.125 290.625 287.75 292.875 288.8125 290.9375 293.6875 295.0625 295.3125 292.8125 299.5 303.5 304.6875 305.875 305.0625 303.8125 305.4375 304.6875 308.4375 306.4375 307.375 309.125 311.0625 312.125 312.6875 313.4375 314.25 315.125 313.375 313.3125 312.0625 310.1875 309.625 309.8125 311.5625 311.9375 311.0625 313.3125 317.125 317.6875 316.5 314.375 314.1875 313 311.4375 307.875 303.75 305 306.375 306.5625 307.4375 307.875 307.875 308.1875 309.25 310.125 310.375 311.3125 312.375 312.25 312.75 313.75 314.25 315.4375 316.5 316.5 316.875 317.1875 317.875 318.25 318.5 319.625 320.625 320.75 321.4375 322.25 323.375 324.25 324.875 324.75 325.1875 325.625 326.4375 326.8125 327.25 328.25 328.25 328.8125 329.125 329.1875 330 330.3125 331.25 332.25 334.6875
303.8125 313.3125 324.0625 331.25 329 320 314.8125 309 296.6875 292.0625 279.5625 268.4375 274.9375 283.125 281.5625 278.4375 276.9375 276.5 274.9375 272.75 262.625 254.875 256.1875 256.5 261.0625 270.0625 267.875 260.875 261.375 279.1875 289.8125 293 285.1875 276.25 268.625 268.625 266.75 270.125 274.0625 277.375 276.8125 272.8125 264.125 253.625 238.3125 231.125 232.25 226.625 215.9375 213.125 222.3125 227.0625 232.3125 237.6875 235.9375 229.1875 219.9375 214.75 212.5625 212.5625 206.625 219.4375 224.375 220.875 221.1875 223 218.5 217.625 222.875 227.8125 233.4375 237.75 242 246.375 250.25 253.4375 257.3125 259.25 261.75 265.625 268.5625 270 271.875 276.625 281 283.4375 284.6875 283.8125 285.5 284 284.9375 287.4375 286.6875 287.9375 286.625 284.625 280.75 276 274 273.1875 272.3125 273.6875 276.5625 278.0625 275.3125 273.75 270.4375 269.8125 270.375 272.4375 273.1875 272.875 271.0625 268.0625 266.375 264.9375 263.75 263.125 265.125 265.4375 262.1875 259.75 262.5 259.8125 259.0625 262.125 261.9375 262.125 261.0625 259.25 257.3125 253.125 249.0625 246.75 245.1875 242.6875 236.875 227.9375 231.5625 233.9375 230.625 228.25 229.125 231.3125 234 235.25 227.5625 228.3125 233.3125 233.9375 230.8125 227.8125 231.8125 227.4375 226.9375 227.25 224.25 223.375 221 217.5 216.75 216 214.9375 211.1875 202.1875 188 176.6875 170.3125 185.0625 182.375 177 190.6875 199.75 201.5625 206.625 215.625 228.6875 237.625 238.5 235.125 222.625 205.125 219.4375 237.0625 230.125 228.75 232.5 239.1875 238 238.5625 223.8125 235 247.6875 253.4375 251.6875 254.375 237.9375 238.5625 250.0625 258.9375 258.0625 262.1875 264 265 269.1875 270.5625 263 253.5625 255.625 257.75 264.625 275.625 280.9375 283 280.75 276.625 271.1875 264.625 250.4375 204.125 165.875 208.3125 227.5 227.3125 221.0625 222.6875 226.75 232.875 235.4375 237.8125 240.25 242.0625 243.4375 243.5625 242.5625 241.375 239.0625 232.5 227.625 227 224.5625 222.6875 218.6875 213.5 211.3125 219.875 225.875 227.9375 229.375 236.8125 244.875 247.25 247.75 252.25 258.625 262.25 261.625 263.6875 266.6875 268.625 269.5625 268.8125 270.5625 271.3125 270.1875 272.25 277.4375 284 280.375 278.0625 276.25 279.8125 284.5 286.3125 285.75 284.625 287.5 291 291.4375 295.0625 293 291 291.8125 290.8125 292.1875 293.0625 294.75 297.75 299.125 301.5 302.875 303.6875 304.0625 304 302.25 299.6875 301.9375 302.8125 301.75 305.9375 303.5625 305.3125 306.1875 310.125 311.375 312.5 312.5625 313.875 314.25 314 312.8125 312.4375 311.9375 311.375 312 312.75 313.6875 313.4375 315.5625 315.75 314.3125 314.8125 313.5625 311.75 307.875 303.0625 302.9375 304.4375 305.375 306.125 307 307.4375 308.0625 308.375 308.625 309.0625 309.625 309.8125 311.125 311.8125 312.0625 312.8125 313.875 314.6875 315.1875 316.0625 317.4375 317.125 317.625 318.125 318.875 319.375 320.5625 320.8125 321.3125 322.125 322.9375 323.4375 324.875 324.75 325 325.625 326 327.375 326.75 327.25 328 328.75 329 329.125 330.125 330.5625 330.6875 331.0625 331.8125 332.1875
304.4375 315.0625 325.25 335.5 332.4375 318.5625 302.625 299.125 288.125 287.625 274.25 269.1875 277.25 288 285.125 280.3125 275.875 273.625 274 272.875 265.125 255.0625 257.125 248.25 252.1875 262.1875 254.8125 258.375 265.625 280 287.8125 292.625 293.25 283.3125 276.3125 265.5 257.4375 263.375 271.25 275.5625 279.4375 278.3125 271.75 263.625 241.625 239 242.1875 234.0625 225.75 219.375 225.4375 228.5625 231.8125 235.4375 247.5 235.9375 219.5625 214.4375 215.0625 215.4375 211.875 226.8125 227.625 224.3125 223.375 224.0625 224.3125 219.3125 214.8125 217.5 227.125 234.875 239.1875 243.0625 246.0625 250.6875 254.5 257.625 261.375 264.5625 267 268 269.375 272.875 277.8125 280.6875 281.8125 280.75 281.0625 283.875 287.25 286.5 286.8125 287 285.3125 281.125 275.0625 275.5625 277.625 277.4375 277.3125 278.125 279.3125 277.0625 274.125 269.5625 266.3125 266 272.1875 274.1875 274.375 272.6875 267.1875 264.75 262.1875 261.125 265.3125 267.5625 268.3125 263.5625 260.75 263.5625 263.5 262.5625 264.3125 262.25 260.25 260.25 258.9375 255.6875 255 254.9375 253.375 250 244.25 240.375 231.125 232 234.75 231 230.5625 228.875 232.125 236.1875 236.75 240.1875 239.375 241.6875 240.375 238.8125 233.1875 227.5625 225.125 219.375 216 222.125 222.1875 221.8125 218.0625 217.25 215.375 213.1875 215.125 213.8125 210.8125 205.5 191.875 180.8125 180.375 189.25 187.625 196.3125 202 192.375 198.375 214.3125 235.375 238 237.75 238.5 240.625 227.125 226.5625 243.5625 245.3125 245.75 245.75 244.6875 237.25 244.375 232.9375 236.8125 250.0625 258.375 256.0625 257.4375 248.125 239.6875 247.9375 257.75 262.1875 262.875 263.6875 267 270.25 271.1875 265.1875 255.375 257.25 259.0625 268.75 277.6875 282.125 283.4375 278.8125 274.875 271.75 266.9375 255.3125 226.4375 216.3125 232.9375 231.875 221.6875 215.75 225.0625 229.8125 233.8125 236.625 239.1875 241.9375 243.0625 243.75 244.5625 243.875 241.875 238.1875 233.4375 226.625 227.75 224.5625 222.4375 216.875 213.1875 219.625 226.8125 228 231.625 234.125 236 239.5 242.625 247.25 248.3125 250.125 254.9375 259.5 255.4375 260.375 262.9375 263.0625 267.875 272.125 271.625 268.1875 268.375 275.75 279.375 280.8125 283.3125 280.125 278.9375 285.5625 288.25 287.4375 283.75 285 290.0625 291.0625 290.6875 291 289.6875 288.625 290.375 294.1875 295.5 296.125 295.625 296.8125 299.125 301.5 301.6875 296.3125 294.5 295.9375 296.8125 300.75 298.125 300.4375 302.75 303.5 307 307.9375 310.1875 310.375 310.5625 311.6875 311.4375 311.875 311.8125 310.5625 309.875 310.1875 311.125 311.875 312.6875 313.1875 313.875 315.4375 315.25 315.0625 312.75 310.5625 307.25 303.1875 303.1875 303.9375 304.9375 305.75 306.25 306.4375 306.6875 307.625 307.5 307.3125 308.75 309.5 310.25 311.25 312.1875 312.75 313.3125 314.0625 315.3125 316.25 316.625 317.8125 318.0625 318.0625 318.25 319.375 320.4375 321 321.6875 322.0625 322.5 323.4375 323.8125 325.0625 325.5 325.4375 326.375 326.4375 327 327.4375 327.75 328.125 328.9375 329.3125 330.25 331.125 331.625 331.5625 332.625 332.1875 332.8125
310.25 319.8125 331.8125 339.875 327.4375 310.1875 295.0625 290.25 283.25 292.75 291.25 287.875 287.1875 288.5 281.1875 276.875 271.6875 269.3125 272.875 272.875 267.75 261.125 259.0625 252.5625 247.6875 254.75 251.75 259.75 268.6875 276.6875 284.625 289.5625 294.9375 294.125 290.125 270.1875 254.5 257.5 263.375 270.125 283.4375 283.875 281.5 279.3125 268.0625 261.9375 255.125 245.875 233.875 234.125 234.25 240.5 240.1875 241.5625 261.1875 226.75 220.75 224 220.5625 216.375 215.0625 234.1875 231.3125 219.1875 215.875 217.3125 220 221.625 223 221.25 220.4375 222.5625 236 240.0625 243.5625 246.9375 250.25 254.75 259.5 263 265.1875 267.125 267.1875 269.5 274.0625 277.9375 279.25 280.8125 282.6875 284.8125 285 285.0625 287 286.5 284.25 281.3125 279.25 280.4375 281 281 280.625 280.375 278 273.375 267.0625 265.5 264.625 266.625 274.625 275.75 274.3125 270 265.5625 263 262.625 264.125 266.5625 271 266.4375 261.625 264.875 266.25 267.4375 267.3125 265.8125 262.0625 259.75 257.5625 254.3125 250.6875 249.9375 251.375 251.4375 249.5 246.1875 240.625 234.0625 236.75 232.6875 232.0625 230.875 233.3125 236.375 241.625 242.125 243.4375 243.8125 241.5 240.9375 232.375 229.8125 221.1875 220.9375 217 211.9375 218.5625 217.5625 216.8125 219.375 219.3125 217.8125 216.125 214.875 212.5 211.375 210.5625 202.5 190.9375 184.625 183.3125 194.3125 196.4375 194.25 193.625 196.5625 213 232.1875 237.1875 236.8125 231.0625 237.4375 239.0625 238.6875 245.5 247.5 247.4375 247.0625 247.6875 247.75 250.875 250.8125 252.8125 257.6875 258.4375 255.625 257.8125 247.375 235.625 240.5625 257.125 263.8125 266.75 265.8125 268.375 271.9375 271.625 264.4375 256.1875 258.375 261.25 271 279.75 283.8125 283.9375 276.875 272.3125 270.625 267.625 258.9375 247.9375 231 229.5625 219.4375 209.75 213.5625 223.4375 223.25 229.3125 235.25 238.9375 242.625 243.9375 243.875 244.5625 245 242.375 239.125 233.875 228.75 229.125 227.4375 224.875 218.875 218.375 218.25 225 233.4375 234.875 238 240 240.8125 241.0625 244.25 248.125 252.25 253.9375 253.375 253.5625 256.5 260.375 262.9375 266.375 270.1875 270.75 264.75 264.5625 273.4375 270.375 275.625 275.5625 280.625 283.5 288.3125 290.125 288.4375 287 282.5625 283.6875 285.5 286.625 288.4375 288.5625 285.25 290.625 292.4375 293.0625 292.875 291.5625 295.375 298.5 299.4375 298.1875 288.1875 291.875 297.5 297 297 292.3125 299.5 304.75 306.125 309 308.75 309.0625 307.8125 309.0625 311.0625 310 308.0625 309.4375 307.6875 305.75 307.875 309.125 310.125 311.0625 313.0625 313.9375 314.8125 314.25 313.9375 311.75 305 302.25 302.0625 302.6875 303.8125 304.5625 305.375 305.1875 305.5625 306.8125 307.875 308.125 308.5 309.8125 310.375 311.625 312.3125 312.625 314.125 314.6875 314.8125 316.1875 316.6875 317.375 317.9375 319 319.1875 319.375 319.75 321.5625 322.25 322.125 322.6875 323.1875 323.875 324.25 326.625 327.625 329.625 331.1875 327.6875 327.375 327.875 328.125 328.4375 329 329.4375 330.5 330.375 330.75 332.375 334.75 334.6875 334.5
311.875 323.875 336.375 342.25 319.8125 301.3125 292.125 293.4375 304 307.75 305.75 293.9375 294.9375 282.0625 272.75 274.6875 271.4375 264.5 263.4375 268.5625 266.875 262.375 255.875 239.625 240.9375 243.875 242.25 254.8125 269.25 277.625 283.625 289.1875 293.375 296.6875 295.9375 289.625 274.75 261.1875 263.25 267.375 281 289.5625 290.3125 289.5 287.0625 277.25 267.6875 257.8125 249.625 242 236.625 239.6875 251.75 259.75 270.375 234.75 222.3125 228.0625 228.0625 236.5 228.3125 242.1875 225.9375 218.875 209.1875 210.1875 216.0625 217.6875 220.375 221.5625 217 217.1875 220.75 229.5625 240 243.625 245.625 246.375 255.9375 260.5625 263.4375 265.0625 265.3125 267.3125 271.625 274.875 277.625 280.1875 281.75 282.125 281.875 284.5 286.1875 286.25 284.6875 283.9375 283.3125 281.375 282.25 281.9375 280.5625 279.125 277.5 273.9375 270.9375 271.3125 270.1875 272.9375 276.8125 276.0625 272.5 269.375 267.4375 268.3125 269.375 269.5625 270.75 267.875 265.75 267.25 268.875 269.3125 267.5 265.75 265.1875 262.4375 256.625 250.375 248.6875 245.75 243.6875 245.25 246.875 245.9375 241.1875 237.6875 240.8125 239.1875 236.8125 234.125 235.5 237.5 240.375 244.9375 245.5625 243.3125 238.6875 230.25 234.25 231.3125 228.5 214.3125 216.9375 211.25 211.9375 211.125 210.0625 214.1875 217 218.3125 218 216.9375 214.375 210.3125 206.5625 210.0625 207.375 203.0625 199.5 194.8125 192.625 200.1875 197.5625 201.3125 199.3125 207.75 225.9375 235.3125 235.3125 225 231.0625 232.0625 234.25 240.5 242.375 241.8125 240.5625 246.625 243.1875 248.8125 250.875 254.4375 252.5625 258.9375 261.375 258.875 255.25 253.1875 249 255.75 261.5625 263.5 267.4375 269.5625 271.3125 272.875 266 259 260.9375 265.125 271.9375 282.0625 284 283.375 276.375 275 272.5625 269.25 252.3125 243.8125 235.8125 223.8125 214.25 208.25 211.125 217.9375 223.0625 230.125 234.4375 238.875 243.0625 244.375 245.1875 245.5 245.0625 243.1875 241.5625 236.375 232.6875 231.5625 229.1875 224.25 220.0625 219.0625 222.5 224.4375 229.4375 235.8125 238 240.0625 243 243.3125 244.1875 245.625 248.8125 251.0625 252.125 254.4375 256.875 261.0625 262.6875 266.6875 270.4375 272.1875 267.1875 266.6875 269.9375 272.1875 275.3125 275.75 277.25 280.625 287.1875 287.625 286.8125 286.5 284 281.875 281.625 283.9375 285.1875 277.4375 283.4375 288.75 289.0625 286.0625 286.4375 290.0625 286.125 282.5625 292.1875 292.9375 298.75 300.8125 301.8125 301.8125 301.0625 299.0625 304.25 306.6875 307.5 306.4375 303.3125 306.5625 307 309 309.625 308.5 306.625 305.6875 303.625 302.0625 303.8125 305.8125 307.5625 309.9375 311.125 312.0625 311.9375 313 312.125 311.1875 305.3125 301.5625 302.8125 303.25 304 304.75 305.6875 306.4375 307.25 307.8125 309 309.875 309.5625 310.5625 310.8125 311.25 312.8125 312.5 313.6875 315 315.3125 316.0625 316.625 317.1875 318.1875 318.75 319.375 320.0625 320.75 320.8125 322.0625 323.0625 323.5 324.75 325.6875 325.75 324.8125 325.6875 326.25 327.4375 334.3125 328.375 328.125 328.25 329.0625 329.125 329.625 329.9375 330.1875 330.75 331.25 332.375 336 335.625
315 323.6875 337.4375 345.1875 323.8125 330.3125 325.625 318.6875 301.125 309.625 304.875 295.1875 286.375 276.4375 262.375 261.0625 267.625 264.625 253.5625 260.75 265 261.5625 254.25 240.9375 230.5 229.9375 245.3125 252.4375 267.5625 275.875 279.5625 286.1875 290.375 294.25 296.1875 297.0625 292.1875 283 275.8125 275.8125 285.4375 291.5625 293.0625 295.125 296.8125 289.625 284.125 283.3125 274.25 262.375 252.875 263.6875 283.375 289.8125 266.75 245.0625 234.625 230.1875 230.875 233.875 247.4375 243.3125 228.125 222.4375 221.6875 213.1875 212 208.25 209.4375 215.875 215 216.3125 216.1875 217.3125 226.6875 238.3125 241.1875 248.1875 252.4375 257.8125 261.625 263.125 263.0625 265.6875 269.6875 272.4375 274.6875 276.6875 278.9375 278.75 279.1875 281.0625 282.9375 285.0625 285.8125 285.6875 284.8125 281.625 280.625 281.5 281.5 281.125 280.125 278.1875 276.8125 276.6875 276.4375 277.375 277.6875 275.3125 273.75 273.375 272.25 273.75 274.25 274.3125 272.9375 271.5 270.8125 271.3125 271.0625 270.25 268.3125 266.1875 264.25 261.875 255.3125 248.875 240.9375 235.6875 233.4375 235.625 236.8125 234.5 231.875 234.4375 240.6875 237.125 234.625 236.0625 236.0625 235.875 241.125 246.3125 243.6875 239.625 231.125 222.625 217.8125 219.4375 217.25 221.625 214.1875 213.6875 207.625 207 206.5 214.3125 214.8125 216.125 214.4375 216.1875 215.6875 212.25 207.8125 209.5 206.3125 203.0625 199.4375 198.6875 196 199.5625 206.5625 204.3125 212.25 210.25 229.5 231.8125 232.375 228.875 217.5625 224.125 230.4375 234.9375 235.9375 235.75 241.3125 240.9375 249.25 248.5 246 246.6875 248.5625 259.375 263.125 263.6875 264.125 264.0625 263.9375 262.5 263.8125 265.75 268.375 269.875 273.8125 274.3125 269.5 261.75 264.375 268.625 272.3125 282.3125 284.6875 281.625 272.9375 273 272 267.3125 259.75 247.4375 228.4375 210.625 205.875 204.875 209.625 214.625 221.125 226.1875 232.8125 239.3125 243.5625 245 245.4375 245.875 243.8125 242.9375 241.125 238 235.625 231.875 227.5625 218.75 216.5 219.125 221.5 225.0625 229.125 231.1875 231.625 236.9375 241.6875 244.3125 245.875 248.5625 251.3125 253.25 253.0625 254 258.6875 260.25 263.6875 266.8125 270.375 271.6875 269.6875 268.0625 268.0625 271.375 275.0625 277.75 279.8125 282.5625 288.1875 285.8125 287.3125 288.125 286.5 284.25 281.25 278.6875 280.4375 279.8125 283.0625 285.25 280.625 274.875 274.25 286.4375 276.375 267.5 269.5 276.25 289.0625 295 300.5625 300.125 301.625 303.9375 304.625 305.8125 306.0625 301.6875 288.1875 300.75 305.5625 307.9375 306.375 305.625 304.8125 301.625 293.75 287.25 290.75 299.9375 300.8125 306.3125 307.625 306.3125 308.375 310.1875 309.5 308.375 305.8125 301.6875 303.25 304.0625 304.0625 305.25 305.625 306.6875 306.5625 307 308.4375 308.5 308.5625 309 310.125 310.375 311.625 313 314.3125 315.375 316 316.4375 316.9375 317.375 318.0625 318.625 319.125 319.5625 320 320.8125 321.9375 323.625 325.3125 326.6875 327.0625 324.1875 324.25 325.0625 325.9375 327.75 336.5 333 328.125 328.4375 329.5625 334 330.8125 330.9375 330.875 331 331.25 332.3125 333.9375 339
328.375 333.5 341.1875 346.9375 346 334.1875 315.75 297.375 288.75 291.125 295.8125 291.4375 280.3125 258.1875 234.875 241.125 256.4375 263.375 256.25 254.6875 260.3125 261.0625 252 247.25 237.75 233.625 235.5625 250.125 272.1875 274.9375 282 286 288.875 292.25 295.3125 298.375 297.75 295.0625 290.9375 281.875 287.1875 291.5625 295 299.5 303.0625 299.6875 298.125 295.0625 286.6875 288.0625 277 288.0625 297.8125 254.8125 268.5625 274.5 246.75 254 266.5 270.9375 257.5 239.75 233.5625 233.6875 229.625 221.75 210 197 206.5625 218 214.4375 214.625 214.75 217.4375 221.25 237.0625 243.625 247.3125 249.625 255.375 259.4375 260.5625 261.625 263.4375 267.1875 270.25 272.5625 273.25 274.5 275.0625 276.6875 278.125 279.0625 281 282 282.25 283.0625 284.375 284.9375 283.875 283.625 282.5625 282.375 281.625 279.3125 278.625 277.1875 278.3125 276.3125 274.125 276.0625 275.3125 276.1875 276 274.75 274.625 273.5 273.25 271.9375 270.1875 268.75 268.875 267.625 264.0625 263.25 259.625 251.1875 247.9375 243.0625 235.625 235 235.1875 235.9375 234.625 235.0625 238 241.9375 237.6875 235.6875 233.75 236.5625 242.375 246.1875 245.875 240.4375 235.0625 231.4375 226.25 219.9375 212.5625 214.9375 215.125 213.875 211.625 208.625 205.6875 206.5625 211 213.1875 213.5625 211.5625 214.4375 214.375 211.875 208.6875 207.3125 206.75 204.25 201.1875 198.0625 200.875 202.75 205.625 215.375 219.625 224.125 227.25 228.25 226.4375 221.4375 199.4375 215.9375 230.0625 229.75 230.8125 234.125 240.875 246.8125 245 242.0625 243.0625 244.875 252.875 260.125 263.375 264.3125 265.0625 266.3125 267.3125 267.5 269.1875 270.75 274.125 275.25 275.3125 272.625 265.75 264.5 265.875 272.1875 273.5 280.75 285 280.5625 273 273.875 272.4375 267.4375 260.4375 250.0625 223.75 211.0625 212.3125 206.4375 210.375 215.6875 221.1875 229 235.75 240.0625 243.3125 245.0625 246.125 246.125 242.375 242.5 241.5 238 233.25 230.875 226.875 219.9375 219.9375 221.0625 222.8125 224.5 228.75 232.375 234.8125 234.8125 239.0625 243.6875 244.8125 247.25 250.5625 254.875 255.625 254.875 258.3125 260.0625 262.875 264.6875 266.25 269.3125 270 271.1875 269.75 272.375 275 278.25 285 289.625 293.125 290.6875 289.125 283.6875 286.25 288.3125 284.875 280.6875 279.9375 282.5625 282.4375 280.5 278.8125 276.4375 275.0625 280.625 274.625 271.875 274.3125 272.1875 284.4375 294.1875 297.0625 291.1875 297.3125 299.75 303.6875 304.875 304 301.0625 290.625 289.3125 300.75 306.4375 305.4375 302.9375 301.625 296.3125 286.75 285.4375 286 288.375 288.0625 295.5 298.9375 294.9375 299.8125 301.625 300.625 299.1875 302.125 302 303.25 304.125 304.6875 305.5 305.625 306.1875 306.3125 307.0625 308.125 308.3125 308.625 309.125 310.375 311.5625 312.1875 313.8125 315.25 316.375 316.9375 317.25 317.5 318.0625 318.625 318.9375 319 319.875 320.4375 321.25 322.375 323.75 325.25 326.5625 326.5625 324.0625 322.875 323.75 326.3125 329.3125 341.3125 340.5 333 332.625 330.6875 340 338.8125 333.9375 331.9375 331.5 331.75 331.9375 333.4375 341.5
315 330.5 344.8125 352.0625 357.75 345.625 319.625 298.0625 277.5 284.25 293.3125 293.125 275 262.9375 257.3125 261.125 255 256.125 254.6875 258.75 263.75 263.9375 249 230.75 239.625 255.75 262.6875 271.3125 273.625 274.0625 280.3125 284.875 288.5625 291.625 295.25 297.875 299.375 299.8125 299.0625 295.625 292.625 293.625 295.5 300.4375 303.5625 307.8125 307.375 305.25 295.4375 297.75 293 297.4375 284.625 285.625 291.6875 290.8125 272.875 280.5 289.625 279.125 244.875 266.0625 248.6875 239.6875 229.9375 221.5 216.6875 207.875 207.8125 217 213.8125 213.0625 214.375 217.5 220.5 227.75 241.3125 245.0625 249.3125 253.375 257.75 259.125 259.125 261.875 259.0625 267.375 269.5625 271 272.125 273.5 275.0625 275.4375 276.375 276.4375 277 277.6875 280.25 281.625 282.0625 280.375 281.875 281.5625 280 281.5 281.1875 279.5625 276.625 278.625 276.6875 275.625 277.875 277.9375 276.75 274.5 273.25 271.6875 269.8125 268.75 271 270.25 268.0625 265.4375 261.0625 259.1875 256.25 253.5 252.3125 248.875 245.875 239.5625 237.4375 238.0625 236.75 238.5625 242.8125 243.4375 243.4375 239.9375 237 236.375 238.8125 243.125 247.75 246 241.9375 238.25 234.6875 229.125 227 217.1875 213.6875 211.625 214.1875 212.5 206.75 208.25 206.75 210.0625 209.8125 208.625 209.125 209.9375 210.875 209.6875 205.625 205.1875 204.4375 203 202.9375 203.75 205.875 207.75 210.3125 216.6875 221.0625 223.1875 224.5 225.8125 218.5625 198.5625 205.4375 220.4375 226.25 224.875 236.75 243.375 245.125 241.25 246.6875 250.25 252.9375 256.4375 258.75 260.5625 262.5625 262.75 263.8125 265.25 266.1875 264.6875 272.4375 274.75 277.125 275.8125 269.625 263.9375 265.5 265.75 264.1875 273.75 277.5 279.75 284.9375 279.3125 274.5 274.4375 271.8125 266.0625 260.625 252.25 241.125 221.5 219.25 205.9375 208.375 214.25 224.875 231.875 235.5 238.4375 243.125 245.5625 246.8125 246.9375 244.1875 242 242.0625 238.8125 235.8125 233.5625 230 224.875 224.9375 226.125 226.375 226.625 229.875 231.9375 235.5625 236.8125 239.5 243.6875 243.4375 245.9375 250.3125 254.625 257.4375 257.25 258.75 259.375 261.375 264.4375 267.6875 272.3125 275.25 277.625 278.875 276.1875 279.5625 282.375 289.5 289.4375 293.0625 293.875 288.375 285.6875 287.3125 290.5625 288.625 284.1875 282.75 282.9375 283.25 281.625 280.25 278.25 278.4375 286.5625 287.5 283.9375 283 273.25 283.625 294.1875 296.0625 296.75 299.5625 296 302.4375 302.4375 302.875 300.75 300.25 302.625 304.75 304.3125 303.3125 302.25 295.125 291.9375 288.9375 288.25 288.5625 289.375 290.3125 292.0625 292.875 294.5625 294.625 295.8125 297.1875 298.3125 300.0625 301.75 303.0625 302.9375 303.875 304.5 304.9375 305.125 305.875 307.1875 308.0625 308.8125 309.8125 310.875 311.8125 312.875 314.0625 315.25 316.6875 316.75 317.6875 318.1875 318.5625 318.625 318.9375 319 320.375 321 320.875 320.3125 320.5625 321.0625 323.0625 324.625 324.5 323.125 323 324.3125 326.125 328.3125 332.625 333.375 343.3125 343.375 331.375 337.1875 349.0625 342.375 345.75 340 331.875 331.625 332.5 333.5
306.6875 320.0625 336.75 354.25 360.1875 349.625 327.125 304.25 274.4375 273.1875 287.125 292 288.9375 281.875 277.9375 269.875 259.9375 253.625 258.5625 264.5 270.0625 265.5 251.25 240.8125 239.0625 250.125 262.6875 265.375 269.1875 271.75 279.4375 285.875 289.625 294 296.3125 296.8125 296.125 298.875 300.4375 298.25 294.1875 299.5625 301.5625 303.875 302.5625 303.375 307.5625 312.4375 306.75 310.5625 298.8125 302.0625 275.3125 294.5 301.375 299.4375 298.3125 295 294.875 287.3125 291.875 283.0625 246.0625 238.0625 236.5625 229.9375 222.25 211.375 207.875 209.9375 204.4375 207.5625 212.5 216.125 219.375 225.375 237.875 243.375 247.4375 251.1875 254.0625 255.75 258 252.875 247 259.25 266.375 267.875 269.125 270.1875 271.6875 273.8125 273.375 272.6875 273.75 275.3125 276.6875 278.8125 279.875 278.75 278.5625 278.5625 278.3125 278.4375 278.5625 278.5625 278.8125 278.75 277.875 277.875 277.125 275.5625 274.1875 271.9375 269.1875 267.25 264.5 262.3125 266.75 266.625 266.5 264.8125 262.3125 260.125 258.1875 257.0625 255.3125 251.875 245 238.375 237.75 238.75 241.4375 245.8125 247.625 247.4375 243.4375 238.3125 240.4375 242.0625 243.6875 246.875 248.9375 244.0625 238.375 233.375 228.9375 224.5 224.1875 221.75 214.875 214.6875 216.625 216.25 215.875 212.875 215.125 212.25 210.3125 210.1875 208.375 206.875 206.3125 206.9375 203.625 201.1875 198.0625 201.625 205 204.3125 207.5625 210.125 213.0625 216.1875 219.1875 220.8125 221.1875 220.1875 212.625 189.5625 199.5625 206.25 208.3125 221.125 233.6875 238.625 240.125 239.9375 250.375 254.75 257.1875 258.9375 258.875 261.0625 261.125 259.8125 261.3125 256.5625 249.9375 259.4375 270.9375 274.8125 278.6875 274 267.75 264.1875 265.8125 265.75 270.25 276.0625 280.6875 283.25 285.9375 282.75 278.0625 274.75 270.6875 265.75 261 256.4375 244.4375 227.5625 207.625 199.375 207.4375 217.6875 225.625 231 235.5625 241.1875 243.6875 246.0625 247 247.1875 246.4375 244.375 244.3125 242.375 239.75 238.1875 233.3125 227.625 224.5 224.25 225.5625 228.0625 228.3125 231.6875 235.5625 238.75 242.9375 248.0625 246.625 249.8125 253.25 255.6875 259.625 262.5 265.5625 268.0625 271.125 271.5 274.3125 274.75 272.4375 271.1875 275.125 281 279.0625 282.5 288.4375 292.25 292.625 292.75 290.75 287.875 291.4375 293.5625 291.75 287.75 286.9375 289.0625 287.875 286 285.5 280.6875 285.6875 289.8125 288.375 282.0625 275 272.625 275.5 282.3125 288.875 294.75 298.625 300.1875 299.625 299.6875 300.625 299.8125 300.6875 301.6875 301 301.1875 299.9375 295.625 293.9375 289.375 290.75 290.8125 290.5625 291.125 292.0625 293.5625 294.5625 295.125 295.1875 296.5 297.1875 297.875 299.125 300.1875 301.5625 304.0625 303.75 305.0625 305.25 306.3125 307.1875 308.8125 309.5 310.875 312 313.25 314.1875 314.5625 315.125 316.0625 317 317.625 318.25 318.9375 319.1875 319.6875 319.125 319.5625 322.25 323.4375 320.25 318.3125 318.75 319.4375 321 322 322.3125 323.0625 323.5 324.6875 325.75 327.125 329.75 335.875 345.9375 348.5 338.25 340.125 349.5625 351.1875 350.6875 350.875 339.8125 334.5625 334.1875 333.75
307.1875 326.75 335.75 354.875 363.0625 347.5 329.25 309.5 283 264.5 286 294.1875 301.1875 293.8125 288.375 272.25 263.5625 268.75 278.5 283.9375 272 262.9375 250 244.1875 242 237.6875 251.4375 263.875 273.3125 277.25 280.5 283.875 288 293.6875 296.0625 288.25 281.5 291.3125 296.1875 300 299.1875 291.6875 291.125 293.5 291.75 293.375 297.1875 301.4375 297.9375 295.6875 307.25 320.375 311.5 302.3125 306.5 307.3125 304.875 305.25 299.75 300.0625 301.5625 264.75 249.5 248 238.9375 235.6875 226.3125 215.3125 209.1875 207.875 204.5625 203.5625 209.375 213.1875 219.5 222.4375 227.1875 233.8125 245.375 249.1875 251.5625 253.375 255.875 257.75 257.5 261.75 248.8125 263.375 265.75 267.25 269.4375 271.5 271 270.5 269.9375 270.8125 273 274.875 274.1875 273.125 272.25 272.6875 273.75 274.3125 274.125 273.8125 274.5 273.625 272.5 273.625 274.5625 275.6875 271.75 269.8125 270.375 269.75 266.9375 264 262.5 263.9375 263.1875 262.75 261.6875 260.375 261.3125 259.9375 258.125 253.1875 246.8125 242 244.25 245.75 248.375 250.125 252.4375 247.875 242.3125 241.1875 243.5 246.9375 248.125 248.5625 247.75 243.5625 239.25 237.0625 232.6875 229.25 224.4375 219.125 218.1875 220.9375 221.9375 220.875 221.5625 219.6875 214.4375 212.4375 213.9375 211 208.0625 207 205.5625 205.125 203.5 199.25 194.3125 202.875 207 209.375 210.25 212.4375 214 216.3125 217.25 217.9375 207.8125 204.8125 215.0625 198.875 198.5625 200.6875 216.75 218.5 218 234.375 231.1875 236.9375 252.25 255.5625 257.5625 258.9375 259.9375 257.875 256.3125 255.875 256.75 245.75 238.5 242.5625 265.9375 275.0625 277.5 278.4375 270.3125 266.3125 268.375 269.875 273.3125 278.5625 281.9375 284.9375 286 281.9375 277.375 274.25 270.4375 265.75 260.5 252.9375 238.8125 214.3125 197.5 201.4375 209.25 219.125 229.625 234.9375 238.9375 242.3125 244.625 247 247.8125 248 247.6875 247.3125 246.4375 244.125 239.125 237.9375 235.6875 232 225.0625 220.625 223.3125 232.1875 235.0625 235.8125 235.8125 239.0625 242.3125 246.1875 252.5625 256.25 259.9375 261.5 264 264.875 264.4375 264.75 269.75 266.9375 267.75 265.1875 263.75 269.875 274.0625 275.1875 278.8125 282.4375 283.1875 284.375 285.8125 286.625 294.625 289.375 289.25 293.625 294.75 290.25 291.0625 291.5 289.875 290.875 293.375 291.875 290.1875 288 284.5 274.4375 274.25 274.875 276.0625 280.0625 282.6875 287.6875 294.3125 295.625 291.375 294.6875 296.3125 293.375 292.6875 290.375 287.375 288.625 289.0625 289.5625 290.8125 291.25 292.125 292.9375 292.375 292.6875 293.625 295 295.9375 296.5 296.9375 297.5 298.125 298.375 299.5 300.625 303.375 306.0625 305.3125 306.625 307.1875 308.3125 309.5625 309.625 310.5 312.125 313.4375 314.25 314.75 315.25 316 316.625 317.25 317.9375 318.6875 319.375 320 320.75 321.125 321.875 322.3125 321.8125 319.5625 317.25 317.75 319.125 320.1875 321.3125 322.5 323 324 324.5625 325.875 326.5625 328.6875 331.6875 332.3125 336.5 346.8125 349.8125 350.8125 352.6875 355.5625 353.25 347.6875 350.25 348 338.9375
